       6
-3.97756963542e-02 -1.82643899763e-02  3.72262125572e-16 -5.87619815039e-01 
-5.85878998880e-01 -5.79610281498e-01 -5.69568161113e-01 -5.57072402210e-01 
-5.43342063623e-01 -5.29214506091e-01 -5.15109193764e-01 -5.01182672102e-01 
-4.87432748456e-01 -4.73832451613e-01 -4.60329805974e-01 -4.46884108787e-01 
-4.33439195485e-01 -4.19973445956e-01 -4.06461068007e-01 -3.92887881438e-01 
-3.79228338917e-01 -3.65478631666e-01 -3.51629990640e-01 -3.37673800341e-01 
-3.23604734514e-01 -3.09416566509e-01 -2.95104028067e-01 -2.80657344119e-01 
-2.66074018725e-01 -2.51328678964e-01 -2.36410636044e-01 -2.21291228301e-01 
-2.05943779861e-01 -1.90296866765e-01 -1.74284151939e-01 -1.57792915895e-01 
-1.40682391854e-01 -1.22734030979e-01 -1.03737324331e-01 -8.35290026029e-02 
-6.21886181209e-02 -4.01552624042e-02 -1.83553771701e-02  3.61941194952e-16 
-5.70606290102e-01 -5.67974449457e-01 -5.60315817999e-01 -5.49037495608e-01 
-5.35878872184e-01 -5.22076712248e-01 -5.08275867580e-01 -4.94693832610e-01 
-4.81354675406e-01 -4.68189878781e-01 -4.55146536775e-01 -4.42165781200e-01 
-4.29209054824e-01 -4.16226270056e-01 -4.03202938029e-01 -3.90118881528e-01 
-3.76964927602e-01 -3.63720567213e-01 -3.50386688291e-01 -3.36958190528e-01 
-3.23429298386e-01 -3.09798333570e-01 -2.96062342851e-01 -2.82220226392e-01 
-2.68265493144e-01 -2.54200889228e-01 -2.40007452432e-01 -2.25682889253e-01 
-2.11207586439e-01 -1.96568276220e-01 -1.81711579974e-01 -1.66593782179e-01 
-1.51127389912e-01 -1.35197185302e-01 -1.18596251310e-01 -1.01075473735e-01 
-8.23287284728e-02 -6.21507744274e-02 -4.06162714638e-02 -1.84601488733e-02 
 3.51461807790e-16 -5.53318322685e-01 -5.49296434717e-01 -5.39802947999e-01 
-5.27372184577e-01 -5.13986069411e-01 -5.00579214696e-01 -4.87446908056e-01 
-4.74590668265e-01 -4.61939155070e-01 -4.49395712146e-01 -4.36908171970e-01 
-4.24426484351e-01 -4.11923295457e-01 -3.99359454739e-01 -3.86730730819e-01 
-3.74023861339e-01 -3.61235352172e-01 -3.48349896655e-01 -3.35373393808e-01 
-3.22304337803e-01 -3.09139330503e-01 -2.95880044353e-01 -2.82526276322e-01 
-2.69080897054e-01 -2.55539698411e-01 -2.41909989796e-01 -2.28178076635e-01 
-2.14349433370e-01 -2.00411829622e-01 -1.86364387798e-01 -1.72170952869e-01 
-1.57812250502e-01 -1.43231505517e-01 -1.28355534870e-01 -1.13025713711e-01 
-9.70227276827e-02 -7.99856742084e-02 -6.14510781365e-02 -4.09253219842e-02 
-1.85284165421e-02  3.40813379290e-16 -5.35779841069e-01 -5.29583377223e-01 
-5.18078433925e-01 -5.05168328178e-01 -4.92318578079e-01 -4.79805187056e-01 
-4.67577329188e-01 -4.55518678367e-01 -4.43541193778e-01 -4.31564929015e-01 
-4.19561258362e-01 -4.07499530427e-01 -3.95368369942e-01 -3.83141190595e-01 
-3.70825042621e-01 -3.58413626496e-01 -3.45908773290e-01 -3.33299527619e-01 
-3.20596515076e-01 -3.07801644111e-01 -2.94913171524e-01 -2.81935187833e-01 
-2.68869344909e-01 -2.55722476231e-01 -2.42491470213e-01 -2.29186782631e-01 
-2.15798236380e-01 -2.02338155143e-01 -1.88799076624e-01 -1.75189349381e-01 
-1.61486091842e-01 -1.47691584815e-01 -1.33776730770e-01 -1.19712562821e-01 
-1.05407147694e-01 -9.07318285842e-02 -7.54099590089e-02 -5.89362407483e-02 
-4.03095083475e-02 -1.83759148656e-02  3.30010647947e-16 -5.18013794030e-01 
-5.08437210125e-01 -4.96101690872e-01 -4.84121772043e-01 -4.72536492257e-01 
-4.61125884111e-01 -4.49761713396e-01 -4.38366690064e-01 -4.26903409108e-01 
-4.15333707463e-01 -4.03660070676e-01 -3.91874356039e-01 -3.79979999242e-01 
-3.67960843329e-01 -3.55833084010e-01 -3.43597504865e-01 -3.31259808304e-01 
-3.18810809882e-01 -3.06264228294e-01 -2.93626198900e-01 -2.80896539864e-01 
-2.68078415885e-01 -2.55174074279e-01 -2.42195203137e-01 -2.29139856212e-01 
-2.16017517643e-01 -2.02819607848e-01 -1.89564397050e-01 -1.76247824727e-01 
-1.62880815229e-01 -1.49447832195e-01 -1.35966180787e-01 -1.22425915504e-01 
-1.08826936026e-01 -9.51317882262e-02 -8.13109309834e-02 -6.72556867463e-02 
-5.27151653293e-02 -3.68555219223e-02 -1.74969684739e-02 -9.51575902159e-17 
-5.00043998281e-01 -4.89501923276e-01 -4.78959848272e-01 -4.68417773267e-01 
-4.57731343622e-01 -4.46614309195e-01 -4.35497274768e-01 -4.24380240342e-01 
-4.13078224925e-01 -4.01420805732e-01 -3.89763386540e-01 -3.78105967348e-01 
-3.66298523741e-01 -3.54148363377e-01 -3.41998203013e-01 -3.29848042650e-01 
-3.17621747050e-01 -3.05038340333e-01 -2.92454933615e-01 -2.79871526898e-01 
-2.67288120181e-01 -2.54340429910e-01 -2.41392739639e-01 -2.28445049368e-01 
-2.15497359097e-01 -2.02311314327e-01 -1.89074452949e-01 -1.75837591570e-01 
-1.62600730191e-01 -1.49216601178e-01 -1.35768005691e-01 -1.22319410204e-01 
-1.08870814718e-01 -9.53329173079e-02 -8.17485399244e-02 -6.81641625408e-02 
-5.45797851573e-02 -4.09470079304e-02 -2.72980052870e-02 -1.36490026435e-02 
 8.36379199297e-17 
 0.00000000000e+00 -1.36490026435e-02 -2.72980052870e-02 -4.09470079304e-02 
-5.45797851573e-02 -6.81641625408e-02 -8.17485399244e-02 -9.53329173079e-02 
-1.08870814718e-01 -1.22319410204e-01 -1.35768005691e-01 -1.49216601178e-01 
-1.62600730191e-01 -1.75837591570e-01 -1.89074452949e-01 -2.02311314327e-01 
-2.15497359097e-01 -2.28445049368e-01 -2.41392739639e-01 -2.54340429910e-01 
-2.67288120181e-01 -2.79871526898e-01 -2.92454933615e-01 -3.05038340333e-01 
-3.17621747050e-01 -3.29848042650e-01 -3.41998203013e-01 -3.54148363377e-01 
-3.66298523741e-01 -3.78105967348e-01 -3.89763386540e-01 -4.01420805732e-01 
-4.13078224925e-01 -4.24380240342e-01 -4.35497274768e-01 -4.46614309195e-01 
-4.57731343622e-01 -4.68417773267e-01 -4.78959848272e-01 -4.89501923276e-01 
-5.00043998281e-01 -1.43674276097e-16 -1.74969694142e-02 -3.68555197896e-02 
-5.27151639010e-02 -6.72556861148e-02 -8.13109292424e-02 -9.51317871396e-02 
-1.08826936585e-01 -1.22425911522e-01 -1.35966182831e-01 -1.49447829443e-01 
-1.62880815468e-01 -1.76247823877e-01 -1.89564396628e-01 -2.02819607494e-01 
-2.16017517338e-01 -2.29139855991e-01 -2.42195202961e-01 -2.55174074146e-01 
-2.68078415789e-01 -2.80896539800e-01 -2.93626198824e-01 -3.06264228222e-01 
-3.18810809822e-01 -3.31259808242e-01 -3.43597504850e-01 -3.55833083951e-01 
-3.67960843303e-01 -3.79979999553e-01 -3.91874355122e-01 -4.03660072582e-01 
-4.15333705430e-01 -4.26903410105e-01 -4.38366691600e-01 -4.49761710854e-01 
-4.61125885979e-01 -4.72536491999e-01 -4.84121772156e-01 -4.96101690999e-01 
-5.08437210191e-01 -5.18013794030e-01  1.49736495539e-16 -1.83759139222e-02 
-4.03095054198e-02 -5.89362402468e-02 -7.54099616421e-02 -9.07318326707e-02 
-1.05407154495e-01 -1.19712573134e-01 -1.33776738761e-01 -1.47691599200e-01 
-1.61486102993e-01 -1.75189363175e-01 -1.88799089262e-01 -2.02338167333e-01 
-2.15798247514e-01 -2.29186792417e-01 -2.42491478610e-01 -2.55722483179e-01 
-2.68869350487e-01 -2.81935192036e-01 -2.94913174385e-01 -3.07801645559e-01 
-3.20596515117e-01 -3.33299526220e-01 -3.45908770436e-01 -3.58413622268e-01 
-3.70825037082e-01 -3.83141184106e-01 -3.95368363053e-01 -4.07499522364e-01 
-4.19561252814e-01 -4.31564920758e-01 -4.43541189131e-01 -4.55518675295e-01 
-4.67577323734e-01 -4.79805186859e-01 -4.92318576957e-01 -5.05168328081e-01 
-5.18078434018e-01 -5.29583377199e-01 -5.35779841069e-01  1.54638043848e-16 
-1.85284160051e-02 -4.09253213882e-02 -6.14510821613e-02 -7.99856844670e-02 
-9.70227430927e-02 -1.13025734975e-01 -1.28355562271e-01 -1.43231533962e-01 
-1.57812285768e-01 -1.72170986955e-01 -1.86364423984e-01 -2.00411864214e-01 
-2.14349466032e-01 -2.28178106282e-01 -2.41910015792e-01 -2.55539720517e-01 
-2.69080915242e-01 -2.82526290706e-01 -2.95880055060e-01 -3.09139337631e-01 
-3.22304341382e-01 -3.35373393840e-01 -3.48349893168e-01 -3.61235345197e-01 
-3.74023851089e-01 -3.86730717644e-01 -3.99359439393e-01 -4.11923278971e-01 
-4.24426466875e-01 -4.36908156918e-01 -4.49395696327e-01 -4.61939143772e-01 
-4.74590660197e-01 -4.87446900469e-01 -5.00579213155e-01 -5.13986068658e-01 
-5.27372185286e-01 -5.39802948583e-01 -5.49296434820e-01 -5.53318322685e-01 
 1.59469579971e-16 -1.84601477657e-02 -4.06162720835e-02 -6.21507821187e-02 
-8.23287461041e-02 -1.01075501080e-01 -1.18596288749e-01 -1.35197232497e-01 
-1.51127442100e-01 -1.66593842415e-01 -1.81711641077e-01 -1.96568339096e-01 
-2.11207647059e-01 -2.25682946150e-01 -2.40007503912e-01 -2.54200934161e-01 
-2.68265531108e-01 -2.82220257330e-01 -2.96062367036e-01 -3.09798351255e-01 
-3.23429309906e-01 -3.36958196079e-01 -3.50386688068e-01 -3.63720561434e-01 
-3.76964916499e-01 -3.90118865548e-01 -4.03202917902e-01 -4.16226247060e-01 
-4.29209030518e-01 -4.42165756654e-01 -4.55146515267e-01 -4.68189858876e-01 
-4.81354661439e-01 -4.94693824010e-01 -5.08275862168e-01 -5.22076713382e-01 
-5.35878874782e-01 -5.49037498769e-01 -5.60315819452e-01 -5.67974449208e-01 
-5.70606290102e-01  1.64224416577e-16 -1.83553769275e-02 -4.01552649343e-02 
-6.21886292301e-02 -8.35290266833e-02 -1.03737362233e-01 -1.22734083249e-01 
-1.40682457696e-01 -1.57792990716e-01 -1.74284236454e-01 -1.90296954016e-01 
-2.05943868729e-01 -2.21291314200e-01 -2.36410716473e-01 -2.51328751462e-01 
-2.66074081707e-01 -2.80657396862e-01 -2.95104070620e-01 -3.09416599240e-01 
-3.23604757927e-01 -3.37673814970e-01 -3.51629997007e-01 -3.65478630298e-01 
-3.79228330354e-01 -3.92887866230e-01 -4.06461046864e-01 -4.19973420080e-01 
-4.33439166636e-01 -4.46884079125e-01 -4.60329777237e-01 -4.73832427146e-01 
-4.87432728019e-01 -5.01182659419e-01 -5.15109188503e-01 -5.29214506182e-01 
-5.43342070181e-01 -5.57072409918e-01 -5.69568167852e-01 -5.79610284812e-01 
-5.85878999534e-01 -5.87619815039e-01  1.68907356329e-16 -1.82643890108e-02 
-3.97756988638e-02 -6.20890298885e-02 -8.42500654769e-02 -1.05638219107e-01 
-1.25958601772e-01 -1.45215215920e-01 -1.63538043224e-01 -1.81122508926e-01 
-1.98113161154e-01 -2.14636735899e-01 -2.30776400827e-01 -2.46619530193e-01 
-2.62205371728e-01 -2.77572011506e-01 -2.92738590321e-01 -3.07737427765e-01 
-3.22576525760e-01 -3.37269561522e-01 -3.51826080206e-01 -3.66255814973e-01 
-3.80567743554e-01 -3.94773439101e-01 -4.08885112939e-01 -4.22910558145e-01 
-4.36879515044e-01 -4.50809697915e-01 -4.64730150629e-01 -4.78665280903e-01 
-4.92670879382e-01 -5.06779641915e-01 -5.21021973402e-01 -5.35380095409e-01 
-5.49774812100e-01 -5.63927857082e-01 -5.77291005151e-01 -5.88984517424e-01 
-5.97944623601e-01 -6.03208622981e-01 -6.04376082153e-01  1.73525678970e-16 
-1.81969817573e-02 -3.95200609096e-02 -6.20417797914e-02 -8.48238384790e-02 
-1.07167584449e-01 -1.28640951833e-01 -1.49112546224e-01 -1.68619954567e-01 
-1.87313642139e-01 -2.05323021479e-01 -2.22776308770e-01 -2.39765698246e-01 
-2.56390440091e-01 -2.72700083685e-01 -2.88741370996e-01 -3.04541317237e-01 
-3.20139164297e-01 -3.35548327715e-01 -3.50786631861e-01 -3.65867830663e-01 
-3.80805155519e-01 -3.95611029443e-01 -4.10299811125e-01 -4.24886655930e-01 
-4.39382360030e-01 -4.53819589901e-01 -4.68217660430e-01 -4.82606005830e-01 
-4.97007260932e-01 -5.11470612744e-01 -5.26012462068e-01 -5.40632337403e-01 
-5.55261114937e-01 -5.69744407263e-01 -5.83717544794e-01 -5.96577867161e-01 
-6.07489884786e-01 -6.15566960677e-01 -6.20103951901e-01 -6.20901139469e-01 
 1.78073006954e-16 -1.81505122002e-02 -3.93751596388e-02 -6.20947644736e-02 
-8.53910161799e-02 -1.08534386280e-01 -1.31011840888e-01 -1.52590688107e-01 
-1.73223085198e-01 -1.93006250892e-01 -2.12042133125e-01 -2.30449857973e-01 
-2.48322823748e-01 -2.65767248219e-01 -2.82839861748e-01 -2.99594457494e-01 
-3.16064801919e-01 -3.32296548174e-01 -3.48308108170e-01 -3.64121362371e-01 
-3.79754009267e-01 -3.95222558816e-01 -4.10542500914e-01 -4.25730585944e-01 
-4.40804221794e-01 -4.55776083859e-01 -4.70680314147e-01 -4.85535795071e-01 
-5.00369565178e-01 -5.15198561035e-01 -5.30060652158e-01 -5.44951056855e-01 
-5.59835514420e-01 -5.74597082809e-01 -5.89023680571e-01 -6.02702196421e-01 
-6.15027116407e-01 -6.25241241718e-01 -6.32612410135e-01 -6.36614567343e-01 
-6.37172167152e-01 -1.81159915270e-16 -1.81196854796e-02 -3.93160377125e-02 
-6.22443413543e-02 -8.60001737270e-02 -1.09841362496e-01 -1.33207379244e-01 
-1.55793746500e-01 -1.77481392689e-01 -1.98315170157e-01 -2.18363771530e-01 
-2.37730004995e-01 -2.56501979706e-01 -2.74788132292e-01 -2.92649017669e-01 
-3.10143427762e-01 -3.27310402819e-01 -3.44201139586e-01 -3.60838372966e-01 
-3.77247680264e-01 -3.93450271768e-01 -4.09465550811e-01 -4.25311571804e-01 
-4.41006940592e-01 -4.56570531193e-01 -4.72015760761e-01 -4.87376824750e-01 
-5.02670336267e-01 -5.17918643099e-01 -5.33130176923e-01 -5.48328778675e-01 
-5.63487014487e-01 -5.78538870361e-01 -5.93328599418e-01 -6.07606092779e-01 
-6.20939601717e-01 -6.32749039182e-01 -6.42360621729e-01 -6.49165648972e-01 
-6.52764755963e-01 -6.53167272418e-01 -1.85513951979e-16 -1.80996993627e-02 
-3.93194040333e-02 -6.24718780098e-02 -8.66595266318e-02 -1.11133000512e-01 
-1.35302215213e-01 -1.58812174797e-01 -1.81487156220e-01 -2.03325041823e-01 
-2.24360194591e-01 -2.44675132555e-01 -2.64348009259e-01 -2.83485485302e-01 
-3.02148802916e-01 -3.20399592170e-01 -3.38280532697e-01 -3.55847281557e-01 
-3.73126050827e-01 -3.90145561924e-01 -4.06929978095e-01 -4.23501094100e-01 
-4.39878950344e-01 -4.56083400543e-01 -4.72133987035e-01 -4.88043817528e-01 
-5.03845893354e-01 -5.19553094740e-01 -5.35181465168e-01 -5.50729341224e-01 
-5.66205673752e-01 -5.81561474435e-01 -5.96703803934e-01 -6.11448627871e-01 
-6.25524711405e-01 -6.38501355996e-01 -6.49836140100e-01 -6.58931814039e-01 
-6.65276289553e-01 -6.68563359178e-01 -6.68865636361e-01 -1.89780246785e-16 
-1.80869280365e-02 -3.93666340509e-02 -6.27571101318e-02 -8.73617036573e-02 
-1.12424328498e-01 -1.37334269033e-01 -1.61700003689e-01 -1.85301339035e-01 
-2.08095931190e-01 -2.30085478378e-01 -2.51330721294e-01 -2.71896944403e-01 
-2.91886005096e-01 -3.11357174844e-01 -3.30372887980e-01 -3.48977836792e-01 
-3.67230964553e-01 -3.85161023721e-01 -4.02799205491e-01 -4.20171987218e-01 
-4.37302982783e-01 -4.54213606839e-01 -4.70924338319e-01 -4.87454639404e-01 
-5.03816405777e-01 -5.20040448181e-01 -5.36134886295e-01 -5.52108536625e-01 
-5.67949108581e-01 -5.83651183036e-01 -5.99146832394e-01 -6.14321995770e-01 
-6.28974027520e-01 -6.42823176740e-01 -6.55451248179e-01 -6.66356683553e-01 
-6.75008619608e-01 -6.80971239587e-01 -6.84009936563e-01 -6.84247649192e-01 
-1.93952004811e-16 -1.80788452843e-02 -3.94437081648e-02 -6.30822657861e-02 
-8.80943969838e-02 -1.13716025111e-01 -1.39319922346e-01 -1.64486823710e-01 
-1.88961319895e-01 -2.12667291416e-01 -2.35576686181e-01 -2.57728610132e-01 
-2.79173969853e-01 -3.00007735956e-01 -3.20285120032e-01 -3.40067590229e-01 
-3.59400344148e-01 -3.78344442335e-01 -3.96930219131e-01 -4.15190600797e-01 
-4.33153702392e-01 -4.50844353966e-01 -4.68284734369e-01 -4.85495350517e-01 
-5.02494923058e-01 -5.19293410592e-01 -5.35918709095e-01 -5.52373569022e-01 
-5.68659251260e-01 -5.84753098762e-01 -6.00636706088e-01 -6.16226467303e-01 
-6.31392834147e-01 -6.45922424160e-01 -6.59535554227e-01 -6.71832382873e-01 
-6.82351036768e-01 -6.90617260457e-01 -6.96256800533e-01 -6.99092425808e-01 
-6.99288812174e-01 -1.98043699666e-16 -1.80737625637e-02 -3.95409401070e-02 
-6.34349646856e-02 -8.88490962071e-02 -1.15009627196e-01 -1.41274444231e-01 
-1.67201805391e-01 -1.92507640922e-01 -2.17087413638e-01 -2.40886436824e-01 
-2.63923134915e-01 -2.86233455204e-01 -3.07904142065e-01 -3.28984779732e-01 
-3.49534400085e-01 -3.69597374684e-01 -3.89235786973e-01 -4.08480626951e-01 
-4.27365814431e-01 -4.45920427419e-01 -4.64169913090e-01 -4.82136632069e-01 
-4.99840569866e-01 -5.17299141471e-01 -5.34519808710e-01 -5.51527064669e-01 
-5.68318007100e-01 -5.84886424831e-01 -6.01200022420e-01 -6.17229163211e-01 
-6.32877822071e-01 -6.48005814095e-01 -6.62394944586e-01 -6.75771076738e-01 
-6.87755262932e-01 -6.97922576361e-01 -7.05847355883e-01 -7.11206634693e-01 
-7.13871104942e-01 -7.14041309512e-01 -2.02060962729e-16 -1.80705807225e-02 
-3.96514085002e-02 -6.38055318237e-02 -8.96173858998e-02 -1.16302102988e-01 
-1.43203130392e-01 -1.69859383838e-01 -1.95962705191e-01 -2.21384395443e-01 
-2.46046055811e-01 -2.69946764579e-01 -2.93107530298e-01 -3.15606098642e-01 
-3.37485301115e-01 -3.58800551793e-01 -3.79594250410e-01 -3.99928505338e-01 
-4.19834089670e-01 -4.39345191367e-01 -4.58491193409e-01 -4.77297578814e-01 
-4.95786343861e-01 -5.13976459157e-01 -5.31883566179e-01 -5.49512220342e-01 
-5.66883225183e-01 -5.83987998281e-01 -6.00813229592e-01 -6.17317983587e-01 
-6.33463259157e-01 -6.49143606387e-01 -6.64212168787e-01 -6.78450228362e-01 
-6.91592527107e-01 -7.03281708494e-01 -7.13126702775e-01 -7.20744151256e-01 
-7.25855091465e-01 -7.28371547446e-01 -7.28525444997e-01 -2.05997907151e-16 
-1.80685949147e-02 -3.97698909734e-02 -6.41857690115e-02 -9.03903677172e-02 
-1.17586432443e-01 -1.45102932862e-01 -1.72461329100e-01 -1.99332576961e-01 
-2.25567137899e-01 -2.51065499742e-01 -2.75808867677e-01 -2.99803720534e-01 
-3.23118456433e-01 -3.45788402205e-01 -3.67864441021e-01 -3.89386045156e-01 
-4.10414461746e-01 -4.30979446867e-01 -4.51114767738e-01 -4.70849486923e-01 
-4.90208573232e-01 -5.09213158848e-01 -5.27880768723e-01 -5.46224898922e-01 
-5.64246925410e-01 -5.81963845524e-01 -5.99361566826e-01 -6.16420247524e-01 
-6.33091442332e-01 -6.49328605804e-01 -6.65019478659e-01 -6.80013659513e-01 
-6.94094912335e-01 -7.07008747092e-01 -7.18419104737e-01 -7.27965814077e-01 
-7.35302912701e-01 -7.40190130749e-01 -7.42575968885e-01 -7.42719993754e-01 
-2.09848926810e-16 -1.80673582990e-02 -3.98926216228e-02 -6.45694336956e-02 
-9.11607598593e-02 -1.18856074707e-01 -1.46969676635e-01 -1.75006722060e-01 
-2.02619523608e-01 -2.29640251218e-01 -2.55950484420e-01 -2.81514995510e-01 
-3.06326346886e-01 -3.30443530233e-01 -3.53893905656e-01 -3.76723146080e-01 
-3.98967020995e-01 -4.20685150155e-01 -4.41905558410e-01 -4.62660957359e-01 
-4.82979510478e-01 -5.02885165985e-01 -5.22397745428e-01 -5.41532962332e-01 
-5.60301883511e-01 -5.78702546213e-01 -5.96748154581e-01 -6.14419408087e-01 
-6.31690601230e-01 -6.48506924453e-01 -6.64815951393e-01 -6.80500801523e-01 
-6.95409917591e-01 -7.09331583465e-01 -7.22023042894e-01 -7.33168780350e-01 
-7.42436925875e-01 -7.49515126172e-01 -7.54197861611e-01 -7.56466406860e-01 
-7.56604743053e-01 -2.13608735708e-16 -1.80665893647e-02 -4.00169018286e-02 
-6.49518284827e-02 -9.19227434451e-02 -1.20105293922e-01 -1.48798926801e-01 
-1.77493230259e-01 -2.05823466223e-01 -2.33605454138e-01 -2.60703691460e-01 
-2.87067837310e-01 -3.12677235983e-01 -3.37581598344e-01 -3.61800072515e-01 
-3.85372634695e-01 -4.08330738796e-01 -4.30731729239e-01 -4.52601276688e-01 
-4.73970466180e-01 -4.94866039338e-01 -5.15310468090e-01 -5.35321873196e-01 
-5.54913853830e-01 -5.74094840943e-01 -5.92859464332e-01 -6.11217240421e-01 
-6.29144040524e-01 -6.46608996092e-01 -6.63552021321e-01 -6.79916265504e-01 
-6.95582005303e-01 -7.10398310804e-01 -7.24159329286e-01 -7.36634436267e-01 
-7.47527744814e-01 -7.56533500163e-01 -7.63370033361e-01 -7.67863586554e-01 
-7.70025274574e-01 -7.70160634373e-01 -2.17272404097e-16 -1.80661117411e-02 
-4.01408087310e-02 -6.53294464407e-02 -9.26717387368e-02 -1.21329234949e-01 
-1.50586438351e-01 -1.79917884453e-01 -2.08942946590e-01 -2.37462579074e-01 
-2.65325691993e-01 -2.92467998624e-01 -3.18856334714e-01 -3.44531365552e-01 
-3.69503937271e-01 -3.93807997728e-01 -4.17470212741e-01 -4.40545114413e-01 
-4.63055486718e-01 -4.85030286087e-01 -5.06494369547e-01 -5.27468331536e-01 
-5.47968257913e-01 -5.68005389177e-01 -5.87585379078e-01 -6.06699450191e-01 
-6.25353598124e-01 -6.43519282945e-01 -6.61161160576e-01 -6.78214859389e-01 
-6.94620343657e-01 -7.10256463160e-01 -7.24974224915e-01 -7.38574496863e-01 
-7.50838853728e-01 -7.61490113695e-01 -7.70246834853e-01 -7.76855755527e-01 
-7.81172549016e-01 -7.83235760766e-01 -7.83369893634e-01 -2.20835390738e-16 
-1.80658152198e-02 -4.02629755326e-02 -6.56996841693e-02 -9.34041792608e-02 
-1.22523878558e-01 -1.52328366745e-01 -1.82277539094e-01 -2.11975764402e-01 
-2.41210284700e-01 -2.69815644421e-01 -2.97714623916e-01 -3.24862231134e-01 
-3.51290378788e-01 -3.77001629576e-01 -4.02023691973e-01 -4.26378090076e-01 
-4.50116106646e-01 -4.73257193111e-01 -4.95827744414e-01 -5.17850331701e-01 
-5.39343325606e-01 -5.60320497054e-01 -5.80790536324e-01 -6.00756232454e-01 
-6.20205451609e-01 -6.39140872148e-01 -6.57529967703e-01 -6.75333564779e-01 
-6.92483882186e-01 -7.08918732060e-01 -7.24516649338e-01 -7.39131526357e-01 
-7.52571479504e-01 -7.64630164533e-01 -7.75048245142e-01 -7.83567114375e-01 
-7.89960114558e-01 -7.94110477594e-01 -7.96082122102e-01 -7.96216147523e-01 
-2.24293570821e-16 -1.80656311682e-02 -4.03824363303e-02 -6.60606208272e-02 
-9.41173123314e-02 -1.23685952866e-01 -1.54021352181e-01 -1.84569141864e-01 
-2.14919396323e-01 -2.44846559874e-01 -2.74171817654e-01 -3.02805889239e-01 
-3.30692587822e-01 -3.57855391362e-01 -3.84288671114e-01 -4.10013778266e-01 
-4.35046839867e-01 -4.59435541059e-01 -4.83195634852e-01 -5.06350589237e-01 
-5.28920348106e-01 -5.50920765728e-01 -5.72363068522e-01 -5.93253251827e-01 
-6.13591195878e-01 -6.33361496653e-01 -6.52563737179e-01 -6.71161817895e-01 
-6.89113325677e-01 -7.06347829353e-01 -7.22801837743e-01 -7.38354435411e-01 
-7.52863080008e-01 -7.66143441096e-01 -7.78001043069e-01 -7.88193622143e-01 
-7.96484188095e-01 -8.02671227679e-01 -8.06663969662e-01 -8.08549898937e-01 
-8.08684524145e-01 -2.27643259138e-16 -1.80655168642e-02 -4.04985134069e-02 
-6.64108508692e-02 -9.48090347402e-02 -1.24812833765e-01 -1.55662535080e-01 
-1.86789884897e-01 -2.17771267307e-01 -2.48369077172e-01 -2.78391980478e-01 
-3.07739388144e-01 -3.36344498182e-01 -3.64222676441e-01 -3.91360243698e-01 
-4.17772146697e-01 -4.43468941360e-01 -4.68494443881e-01 -4.92860416027e-01 
-5.16587096700e-01 -5.39691518560e-01 -5.62186777781e-01 -5.84081373242e-01 
-6.05378501361e-01 -6.26075123984e-01 -6.46152676829e-01 -6.65607874657e-01 
-6.84401434556e-01 -7.02488231166e-01 -7.19795832637e-01 -7.36260134704e-01 
-7.51761439190e-01 -7.66161250171e-01 -7.79282948415e-01 -7.90943668935e-01 
-8.00917535411e-01 -8.08988155151e-01 -8.14977941653e-01 -8.18820775426e-01 
-8.20626074154e-01 -8.20761736582e-01 -2.30881305538e-16 -1.80654457053e-02 
-4.06107402539e-02 -6.67493669175e-02 -9.54777760805e-02 -1.25902476452e-01 
-1.57249577302e-01 -1.88937337120e-01 -2.20528993007e-01 -2.51775522630e-01 
-2.82473788733e-01 -3.12512546549e-01 -3.41814906947e-01 -3.70388440023e-01 
-3.98211588827e-01 -4.25292902527e-01 -4.51637258037e-01 -4.77284397871e-01 
-5.02241864904e-01 -5.26526425607e-01 -5.50151970763e-01 -5.73128644223e-01 
-5.95462076281e-01 -6.17152595617e-01 -6.38194263094e-01 -6.58565478809e-01 
-6.78260312634e-01 -6.97236658326e-01 -7.15447143027e-01 -7.32817883544e-01 
-7.49284719809e-01 -7.64729683239e-01 -7.79018660065e-01 -7.91982800942e-01 
-8.03450577346e-01 -8.13211891012e-01 -8.21070075445e-01 -8.26870423352e-01 
-8.30570266996e-01 -8.32299462222e-01 -8.32436427042e-01 -2.34033573281e-16 
-1.80654011187e-02 -4.07197885751e-02 -6.70784364595e-02 -9.61282687580e-02 
-1.26962909419e-01 -1.58794584343e-01 -1.91028368820e-01 -2.23214748177e-01 
-2.55093738669e-01 -2.86450922178e-01 -3.17164881611e-01 -3.47149035993e-01 
-3.76403396775e-01 -4.04898652524e-01 -4.32636944226e-01 -4.59617363036e-01 
-4.85875390119e-01 -5.11414138296e-01 -5.36246676659e-01 -5.60383540926e-01 
-5.83831742239e-01 -6.06593910825e-01 -6.28667441708e-01 -6.50043506808e-01 
-6.70697577283e-01 -6.90621270845e-01 -7.09769964196e-01 -7.28094427320e-01 
-7.45519780469e-01 -7.61982260843e-01 -7.77366042347e-01 -7.91541665031e-01 
-8.04348115121e-01 -8.15625022376e-01 -8.25177657320e-01 -8.32828484661e-01 
-8.38444937277e-01 -8.42006894597e-01 -8.43663420055e-01 -8.43801844830e-01 
-2.37096407303e-16 -1.80653727242e-02 -4.08253895550e-02 -6.73973972185e-02 
-9.67593540986e-02 -1.27992439370e-01 -1.60295354187e-01 -1.93060329329e-01 
-2.25825483724e-01 -2.58320283550e-01 -2.90319493287e-01 -3.21691953676e-01 
-3.52341754608e-01 -3.82261577267e-01 -4.11414493900e-01 -4.39796257763e-01 
-4.67400109023e-01 -4.94257124158e-01 -5.20365820481e-01 -5.45735387502e-01 
-5.70372831981e-01 -5.94281886957e-01 -6.17462081190e-01 -6.39907834026e-01 
-6.61607456751e-01 -6.82533604067e-01 -7.02675626144e-01 -7.21986662943e-01 
-7.40415971622e-01 -7.57888064126e-01 -7.74339947369e-01 -7.89658263745e-01 
-8.03718405494e-01 -8.16367215266e-01 -8.27455303445e-01 -8.36802939003e-01 
-8.44251187605e-01 -8.49688949428e-01 -8.53117798338e-01 -8.54704841691e-01 
-8.54844811711e-01 -2.40064728558e-16 -1.80653539196e-02 -4.09272886626e-02 
-6.77055598417e-02 -9.73697421963e-02 -1.28989063120e-01 -1.61749119009e-01 
-1.95029673920e-01 -2.28356874074e-01 -2.61450024855e-01 -2.94073501266e-01 
-3.26086796770e-01 -3.57385013944e-01 -3.87953727507e-01 -4.17748547310e-01 
-4.46758888270e-01 -4.74972113623e-01 -5.02414793491e-01 -5.29080728698e-01 
-5.54975088802e-01 -5.80101216668e-01 -6.04459456308e-01 -6.28046163078e-01 
-6.50852761395e-01 -6.72864745017e-01 -6.94052069148e-01 -7.14401992020e-01 
-7.33865672677e-01 -7.52391158022e-01 -7.69902682273e-01 -7.86338326154e-01 
-8.01587455781e-01 -8.15530453278e-01 -8.28022002740e-01 -8.38923509169e-01 
-8.48069888629e-01 -8.55320307673e-01 -8.60584486890e-01 -8.63884865406e-01 
-8.65405465891e-01 -8.65547015314e-01 -2.42933784029e-16 -1.80653408521e-02 
-4.10252888127e-02 -6.80023601103e-02 -9.79583346217e-02 -1.29951020566e-01 
-1.63153378791e-01 -1.96933121143e-01 -2.30804828433e-01 -2.64478024098e-01 
-2.97707099265e-01 -3.30342570503e-01 -3.62270879922e-01 -3.93470716631e-01 
-4.23890395757e-01 -4.53513068762e-01 -4.82320230857e-01 -5.10333882034e-01 
-5.37543026738e-01 -5.63948713568e-01 -5.89550523229e-01 -6.14345332370e-01 
-6.38326278264e-01 -6.61481791738e-01 -6.83794604542e-01 -7.05232091612e-01 
-7.25779584858e-01 -7.45386494424e-01 -7.63999921571e-01 -7.81544102588e-01 
-7.97958438739e-01 -8.13135216206e-01 -8.26959896453e-01 -8.39294957843e-01 
-8.50012405597e-01 -8.58961456729e-01 -8.66018890617e-01 -8.71114609799e-01 
-8.74291093483e-01 -8.75748189855e-01 -8.75891318763e-01 -2.45699183045e-16 
-1.80653314009e-02 -4.11192400391e-02 -6.82873405624e-02 -9.85242039503e-02 
-1.30876778887e-01 -1.64505899347e-01 -1.98767671948e-01 -2.33165535752e-01 
-2.67399608841e-01 -3.01214691252e-01 -3.34452677350e-01 -3.66991666147e-01 
-3.98803681137e-01 -4.29829923399e-01 -4.60047378699e-01 -4.89431714712e-01 
-5.18000332095e-01 -5.45737397106e-01 -5.72639773165e-01 -5.98703215110e-01 
-6.23921084351e-01 -6.48283280758e-01 -6.71775261456e-01 -6.94377062263e-01 
-7.16053598024e-01 -7.36788429466e-01 -7.56529427494e-01 -7.75222978004e-01 
-7.92793554992e-01 -8.09182077885e-01 -8.24283900446e-01 -8.37989611390e-01 
-8.50169409204e-01 -8.60705690611e-01 -8.69461623562e-01 -8.76331109046e-01 
-8.81263584992e-01 -8.84320746306e-01 -8.85717205982e-01 -8.85861891609e-01 
-2.48356930002e-16 -1.80653244522e-02 -4.12090293254e-02 -6.85601340983e-02 
-9.90665747761e-02 -1.31765017452e-01 -1.65804708436e-01 -2.00530623503e-01 
-2.35435501064e-01 -2.70210432610e-01 -3.04591014793e-01 -3.38410865266e-01 
-3.71540052832e-01 -4.03944156651e-01 -4.35557457330e-01 -4.66350893859e-01 
-4.96294375745e-01 -5.25400706882e-01 -5.53649208855e-01 -5.81032530112e-01 
-6.07542568180e-01 -6.33169149941e-01 -6.57898941906e-01 -6.81714464283e-01 
-7.04593132101e-01 -7.26497520224e-01 -7.47409563105e-01 -7.67275781288e-01 
-7.86042044888e-01 -8.03633262360e-01 -8.19992027057e-01 -8.35016865626e-01 
-8.48603506685e-01 -8.60629767041e-01 -8.70988210319e-01 -8.79555591564e-01 
-8.86242428167e-01 -8.91017031623e-01 -8.93959478769e-01 -8.95298124538e-01 
-8.95444327814e-01 -2.50903452947e-16 -1.80653189556e-02 -4.12945740581e-02 
-6.88204523068e-02 -9.95848102217e-02 -1.32614617354e-01 -1.67048093590e-01 
-2.02219581422e-01 -2.37611575594e-01 -2.72906525849e-01 -3.07831212252e-01 
-3.42211317828e-01 -3.75909193155e-01 -4.08884197956e-01 -4.41063898858e-01 
-4.72413326991e-01 -5.02896729775e-01 -5.32522346292e-01 -5.61264679751e-01 
-5.89112165897e-01 -6.16052843721e-01 -6.42073012814e-01 -6.67156132073e-01 
-6.91281836858e-01 -7.14425004462e-01 -7.36545989315e-01 -7.57625234604e-01 
-7.77608080360e-01 -7.96440052989e-01 -8.14046658109e-01 -8.30372282158e-01 
-8.45318693433e-01 -8.58786740561e-01 -8.70661731367e-01 -8.80846150446e-01 
-8.89229956679e-01 -8.95739756662e-01 -9.00362049889e-01 -9.03194455017e-01 
-9.04478077038e-01 -9.04625748791e-01 -2.53335627535e-16 -1.80653150333e-02 
-4.13758186031e-02 -6.90680775913e-02 -1.00078401998e-01 -1.33424652723e-01 
-1.68234600306e-01 -2.03832468909e-01 -2.39690981721e-01 -2.75484337915e-01 
-3.10930891112e-01 -3.45848731577e-01 -3.80092806256e-01 -4.13616485395e-01 
-4.46340841511e-01 -4.78225155736e-01 -5.09228134426e-01 -5.39353511003e-01 
-5.68571027063e-01 -5.96864937799e-01 -6.24219450487e-01 -6.50617369416e-01 
-6.76038991517e-01 -7.00461133362e-01 -7.23856224465e-01 -7.46182517400e-01 
-7.67419089841e-01 -7.87510253783e-01 -8.06401339381e-01 -8.24018581811e-01 
-8.40308247735e-01 -8.55175383009e-01 -8.68525906893e-01 -8.80252463673e-01 
-8.90267190678e-01 -8.98472842300e-01 -9.04811560400e-01 -9.09287322231e-01 
-9.12014436479e-01 -9.13245806251e-01 -9.13394889798e-01 -2.55650796002e-16 
-1.80653123828e-02 -4.14527287794e-02 -6.93028548736e-02 -1.00546960602e-01 
-1.34194382980e-01 -1.69363029070e-01 -2.05367533462e-01 -2.41671331577e-01 
-2.77940771185e-01 -3.13886173719e-01 -3.49318381703e-01 -3.84085257362e-01 
-4.18134418310e-01 -4.51380676038e-01 -4.83777737817e-01 -5.15278913213e-01 
-5.45883514476e-01 -5.75556606570e-01 -6.04278323997e-01 -6.32029095230e-01 
-6.58788284045e-01 -6.84533089466e-01 -7.09237587969e-01 -7.32871857385e-01 
-7.55392165861e-01 -7.76776342662e-01 -7.96967808379e-01 -8.15911822274e-01 
-8.33535454479e-01 -8.49786910380e-01 -8.64574519677e-01 -8.77809194603e-01 
-8.89390735455e-01 -8.99240638221e-01 -9.07274017056e-01 -9.13447965549e-01 
-9.17783200294e-01 -9.20409862077e-01 -9.21591734900e-01 -9.21742168334e-01 
-2.57846780872e-16 -1.80653106136e-02 -4.15252903271e-02 -6.95246873793e-02 
-1.00990209672e-01 -1.34923247040e-01 -1.70432433544e-01 -2.06823351219e-01 
-2.43550642061e-01 -2.80273207616e-01 -3.16693737595e-01 -3.52616175692e-01 
-3.87881624670e-01 -4.22432193762e-01 -4.56176680017e-01 -4.89063410238e-01 
-5.21040463296e-01 -5.52102838198e-01 -5.82211034409e-01 -6.11341151229e-01 
-6.39469915265e-01 -6.66573325659e-01 -6.92625564344e-01 -7.17598057941e-01 
-7.41458634045e-01 -7.64161692508e-01 -7.85683923285e-01 -8.05967977796e-01 
-8.24959149786e-01 -8.42585425425e-01 -8.58796981565e-01 -8.73505410717e-01 
-8.86626514056e-01 -8.98067040368e-01 -9.07757524726e-01 -9.15624975685e-01 
-9.21640824111e-01 -9.25841761961e-01 -9.28372895922e-01 -9.29508015875e-01 
-9.29659733575e-01 -2.59921893272e-16 -1.80653094329e-02 -4.15935060259e-02 
-6.97335310938e-02 -1.01407978686e-01 -1.35610856762e-01 -1.71442116022e-01 
-2.08198828527e-01 -2.45327343591e-01 -2.82479528136e-01 -3.19350845721e-01 
-3.55738695628e-01 -3.91477752961e-01 -4.26504871193e-01 -4.60723092403e-01 
-4.94075572846e-01 -5.26505346990e-01 -5.58003230298e-01 -5.88525291880e-01 
-6.18043704899e-01 -6.46531593129e-01 -6.73961686184e-01 -7.00305245067e-01 
-7.25531147104e-01 -7.49605075851e-01 -7.72479677612e-01 -7.94130604707e-01 
-8.14499848394e-01 -8.33532824256e-01 -8.51158493566e-01 -8.67329013974e-01 
-8.81959194548e-01 -8.94969595971e-01 -9.06273682550e-01 -9.15810681859e-01 
-9.23519002077e-01 -9.29383766578e-01 -9.33456852839e-01 -9.35897465109e-01 
-9.36988562563e-01 -9.37141496327e-01 -2.61874935789e-16 -1.80653086193e-02 
-4.16573948566e-02 -6.99293923052e-02 -1.01800198784e-01 -1.36256991420e-01 
-1.72391623607e-01 -2.09493200848e-01 -2.47000285534e-01 -2.84558125027e-01 
-3.21855368051e-01 -3.58683228894e-01 -3.94870294028e-01 -4.30348421804e-01 
-4.65015171440e-01 -4.98808753892e-01 -5.31667364273e-01 -5.63577784061e-01 
-5.94491809198e-01 -6.24377817301e-01 -6.53205448439e-01 -6.80944275330e-01 
-7.07562747985e-01 -7.33027304285e-01 -7.57301594008e-01 -7.80336623172e-01 
-8.02107101218e-01 -8.22554456226e-01 -8.41624296510e-01 -8.59246597511e-01 
-8.75375485664e-01 -8.89928916899e-01 -9.02832058238e-01 -9.14004830897e-01 
-9.23394783005e-01 -9.30951198636e-01 -9.36672220245e-01 -9.40624099460e-01 
-9.42979267219e-01 -9.44029059214e-01 -9.44183139352e-01 -2.63706715832e-16 
-1.80653079237e-02 -4.17170392067e-02 -7.01124744168e-02 -1.02167199920e-01 
-1.36862091259e-01 -1.73281477527e-01 -2.10707032939e-01 -2.48570034507e-01 
-2.86509522512e-01 -3.24207741065e-01 -3.61450079001e-01 -3.98059375124e-01 
-4.33962757322e-01 -4.69052581361e-01 -5.03262348464e-01 -5.36525632617e-01 
-5.68825345835e-01 -6.00109184529e-01 -6.30341877773e-01 -6.59489716439e-01 
-6.87519242148e-01 -7.14396213981e-01 -7.40084746444e-01 -7.64546567665e-01 
-7.87731153789e-01 -8.09612359016e-01 -8.30131133763e-01 -8.49233335260e-01 
-8.66849974899e-01 -8.82937117936e-01 -8.97415778538e-01 -9.10215557944e-01 
-9.21262557602e-01 -9.30512255551e-01 -9.37924269997e-01 -9.43509073056e-01 
-9.47346470510e-01 -9.49621262347e-01 -9.50632414681e-01 -9.50787573742e-01 
-2.65435267441e-16 -1.80653072781e-02 -4.17730748552e-02 -7.02846870388e-02 
-1.02512743173e-01 -1.37432267117e-01 -1.74120552539e-01 -2.11852299694e-01 
-2.50051928907e-01 -2.88352624814e-01 -3.26430576247e-01 -3.64065651720e-01 
-4.01075231460e-01 -4.37381936952e-01 -4.72873157718e-01 -5.07477885530e-01 
-5.41125259473e-01 -5.73794462958e-01 -6.05429242015e-01 -6.35990803788e-01 
-6.65442205927e-01 -6.93747067424e-01 -7.20868559668e-01 -7.46768573264e-01 
-7.71407010263e-01 -7.94731910526e-01 -8.16716346647e-01 -8.37300862814e-01 
-8.56431611356e-01 -8.74040656510e-01 -8.90085975586e-01 -9.04491564651e-01 
-9.17191312753e-01 -9.28117265954e-01 -9.37232500726e-01 -9.44506508139e-01 
-9.49961502503e-01 -9.53690144887e-01 -9.55888871392e-01 -9.56863645668e-01 
-9.57019820745e-01 -2.67057562735e-16 -1.80653066882e-02 -4.18254472611e-02 
-7.04458242504e-02 -1.02836355609e-01 -1.37966658516e-01 -1.74907482534e-01 
-2.12927019171e-01 -2.51443270639e-01 -2.90083928824e-01 -3.28519488477e-01 
-3.66524615815e-01 -4.03911535676e-01 -4.40598601129e-01 -4.76468489469e-01 
-5.11445901359e-01 -5.45455746873e-01 -5.78473641139e-01 -6.10439549673e-01 
-6.41311304036e-01 -6.71048862918e-01 -6.99613047101e-01 -7.26964556520e-01 
-7.53063166657e-01 -7.77867054365e-01 -8.01322917771e-01 -8.23403118171e-01 
-8.44047857538e-01 -8.63203618250e-01 -8.80803519321e-01 -8.96807406008e-01 
-9.11142159029e-01 -9.23745784655e-01 -9.34556010259e-01 -9.43543147548e-01 
-9.50686062740e-01 -9.56018086508e-01 -9.59644001884e-01 -9.61771134598e-01 
-9.62711834497e-01 -9.62868963428e-01 -2.68569827440e-16 -1.80653061979e-02 
-4.18740769405e-02 -7.05956045829e-02 -1.03137414029e-01 -1.38464158156e-01 
-1.75640538929e-01 -2.13928714152e-01 -2.52740719406e-01 -2.91699129548e-01 
-3.30469121841e-01 -3.68820493740e-01 -4.06560635017e-01 -4.43603884551e-01 
-4.79828481013e-01 -5.15155072493e-01 -5.49504567754e-01 -5.82849194847e-01 
-6.15125331016e-01 -6.46287599621e-01 -6.76293014069e-01 -7.05099738384e-01 
-7.32666131155e-01 -7.58949971725e-01 -7.83907818680e-01 -8.07485124713e-01 
-8.29653607314e-01 -8.50353183382e-01 -8.69530689270e-01 -8.87120285568e-01 
-9.03083623482e-01 -9.17350348699e-01 -9.29862388203e-01 -9.40562855740e-01 
-9.49428900363e-01 -9.56448224032e-01 -9.61664604577e-01 -9.65194175021e-01 
-9.67254383320e-01 -9.68163375346e-01 -9.68321393733e-01 -2.69968672517e-16 
-1.80653058324e-02 -4.19188956070e-02 -7.07337825009e-02 -1.03415369560e-01 
-1.38923783458e-01 -1.76318178412e-01 -2.14855161490e-01 -2.53941263729e-01 
-2.93194330572e-01 -3.32274612047e-01 -3.70947385130e-01 -4.09015541071e-01 
-4.46389674460e-01 -4.82943877649e-01 -5.18595004105e-01 -5.53260209736e-01 
-5.86908536737e-01 -6.19472987538e-01 -6.50905164660e-01 -6.81159308308e-01 
-7.10191083262e-01 -7.37956649997e-01 -7.64411920245e-01 -7.89511946922e-01 
-8.13201035111e-01 -8.35450323231e-01 -8.56199493579e-01 -8.75395749800e-01 
-8.92974266367e-01 -9.08898421068e-01 -9.23100483400e-01 -9.35526079094e-01 
-9.46123383617e-01 -9.54875951332e-01 -9.61779741427e-01 -9.66888268777e-01 
-9.70328207863e-01 -9.72326345351e-01 -9.73206051235e-01 -9.73364892580e-01 
-2.71251124952e-16 -1.80653055744e-02 -4.19598464738e-02 -7.08601501240e-02 
-1.03669751642e-01 -1.39344684077e-01 -1.76939055962e-01 -2.15704411698e-01 
-2.55042249560e-01 -2.94566082378e-01 -3.33931636231e-01 -3.72900028930e-01 
-4.11270005101e-01 -4.48948699514e-01 -4.85806368230e-01 -5.21756346207e-01 
-5.56712304559e-01 -5.90640319559e-01 -6.23470252214e-01 -6.55150890242e-01 
-6.85633889903e-01 -7.14872589246e-01 -7.42821106012e-01 -7.69433621712e-01 
-7.94663801328e-01 -8.18454901463e-01 -8.40777543465e-01 -8.61571219126e-01 
-8.80783502575e-01 -8.98350540640e-01 -9.14237341867e-01 -9.28378637831e-01 
-9.40723507107e-01 -9.51224833505e-01 -9.59872113184e-01 -9.66668947276e-01 
-9.71677839919e-01 -9.75035166446e-01 -9.76976253291e-01 -9.77829144863e-01 
-9.77988740839e-01 -2.72414654463e-16 -1.80653054219e-02 -4.19968848801e-02 
-7.09745386068e-02 -1.03900171320e-01 -1.39726149046e-01 -1.77502036069e-01 
-2.16474806884e-01 -2.56041405074e-01 -2.95811416613e-01 -3.35436457201e-01 
-3.74673859104e-01 -4.13318585710e-01 -4.51274610077e-01 -4.88408678116e-01 
-5.24630899290e-01 -5.59851745926e-01 -5.94034565684e-01 -6.27106329806e-01 
-6.59013234430e-01 -6.89704556904e-01 -7.19131494768e-01 -7.47246289535e-01 
-7.74001537887e-01 -7.99349639230e-01 -8.23232901835e-01 -8.45621489327e-01 
-8.66454740983e-01 -8.85680595106e-01 -9.03236116381e-01 -9.19087832847e-01 
-9.33172757209e-01 -9.45443152542e-01 -9.55856231394e-01 -9.64406938798e-01 
-9.71105869161e-01 -9.76023734277e-01 -9.79305740523e-01 -9.81194944513e-01 
-9.82023534912e-01 -9.82183815650e-01 -2.73457195654e-16 -1.80653053711e-02 
-4.20299782342e-02 -7.10768193100e-02 -1.04106324219e-01 -1.40067611456e-01 
-1.78006202094e-01 -2.17164994542e-01 -2.56936861962e-01 -2.96927874564e-01 
-3.36785961181e-01 -3.76265052017e-01 -4.15156706997e-01 -4.53362047351e-01 
-4.90744649683e-01 -5.27211706019e-01 -5.62670792192e-01 -5.97082780121e-01 
-6.30372019469e-01 -6.62482353471e-01 -6.93360899768e-01 -7.22956913932e-01 
-7.51220937656e-01 -7.78104135307e-01 -8.03557767062e-01 -8.27523293752e-01 
-8.49970478020e-01 -8.70838538927e-01 -8.90075763777e-01 -9.07620068682e-01 
-9.23439375671e-01 -9.37472780062e-01 -9.49675440652e-01 -9.60008495161e-01 
-9.68471818333e-01 -9.75082319581e-01 -9.79918107029e-01 -9.83132324223e-01 
-9.84974939019e-01 -9.85781775887e-01 -9.85942670277e-01 -2.74377165156e-16 
-1.80653054238e-02 -4.20591065536e-02 -7.11669044145e-02 -1.04287992252e-01 
-1.40368653460e-01 -1.78450863377e-01 -2.17773939719e-01 -2.57727171649e-01 
-2.97913530575e-01 -3.37977688308e-01 -3.77670565550e-01 -4.16780706444e-01 
-4.55206700906e-01 -4.92809309478e-01 -5.29493128139e-01 -5.65163152628e-01 
-5.99778045788e-01 -6.33259818290e-01 -6.65550212714e-01 -6.96594418626e-01 
-7.26339958900e-01 -7.54735860449e-01 -7.81732013933e-01 -8.07278670014e-01 
-8.31316543392e-01 -8.53815050003e-01 -8.74713315654e-01 -8.93959953497e-01 
-9.11493653764e-01 -9.27283594313e-01 -9.41270738761e-01 -9.53412834793e-01 
-9.63674520654e-01 -9.72060058843e-01 -9.78591969876e-01 -9.83354922020e-01 
-9.86509081710e-01 -9.88310503956e-01 -9.89098159948e-01 -9.89259595933e-01 
-2.75173473475e-16 -1.80653055668e-02 -4.20842619214e-02 -7.12447473153e-02 
-1.04445045164e-01 -1.40629008103e-01 -1.78835560325e-01 -2.18300932037e-01 
-2.58411317596e-01 -2.98767008396e-01 -3.39009855293e-01 -3.78888168061e-01 
-4.18187871316e-01 -4.56805352473e-01 -4.94598919913e-01 -5.31470905904e-01 
-5.67324054516e-01 -6.02115097770e-01 -6.35764002193e-01 -6.68210673431e-01 
-6.99398615101e-01 -7.29273835728e-01 -7.57784039683e-01 -7.84878007596e-01 
-8.10505112955e-01 -8.34605425791e-01 -8.57148067211e-01 -8.78072091975e-01 
-8.97326408712e-01 -9.14850395032e-01 -9.30614335278e-01 -9.44560833543e-01 
-9.56649903912e-01 -9.66849242765e-01 -9.75166939176e-01 -9.81630400027e-01 
-9.86329997184e-01 -9.89431990616e-01 -9.91197695181e-01 -9.91968759609e-01 
-9.92130664466e-01 -2.75845531303e-16 -1.80653057947e-02 -4.21054490647e-02 
-7.13103426076e-02 -1.04577440451e-01 -1.40848561152e-01 -1.79160066402e-01 
-2.18745590808e-01 -2.58988721747e-01 -2.99487491931e-01 -3.39881369732e-01 
-3.79916457701e-01 -4.19376462910e-01 -4.58155905965e-01 -4.96111014940e-01 
-5.33142199624e-01 -5.69150290302e-01 -6.04090375896e-01 -6.37880683430e-01 
-6.70459554632e-01 -7.01769057767e-01 -7.31753912620e-01 -7.60360699016e-01 
-7.87537255139e-01 -8.13232211603e-01 -8.37385095015e-01 -8.59964781368e-01 
-8.80910272262e-01 -9.00170735332e-01 -9.17686140657e-01 -9.33427720524e-01 
-9.47339480262e-01 -9.59383365274e-01 -9.69529673191e-01 -9.77789743537e-01 
-9.84195128375e-01 -9.88841031735e-01 -9.91898866791e-01 -9.93634381371e-01 
-9.94391450508e-01 -9.94553751152e-01 -2.76393250250e-16 -1.80653060815e-02 
-4.21226846296e-02 -7.13637257706e-02 -1.04685223096e-01 -1.41027349503e-01 
-1.79424388019e-01 -2.19107864620e-01 -2.59459246770e-01 -3.00074728376e-01 
-3.40591835967e-01 -3.80754870701e-01 -4.20345728262e-01 -4.59257402411e-01 
-4.97344418674e-01 -5.34505611844e-01 -5.70640243381e-01 -6.05702053813e-01 
-6.39607842686e-01 -6.72294667776e-01 -7.03703418945e-01 -7.33777758266e-01 
-7.62463343207e-01 -7.89707239878e-01 -8.15457471493e-01 -8.39653122024e-01 
-8.62262869988e-01 -8.83225678086e-01 -9.02490931324e-01 -9.19999090859e-01 
-9.35722170897e-01 -9.49605330041e-01 -9.61612100090e-01 -9.71714912481e-01 
-9.79927769924e-01 -9.86285617369e-01 -9.90887609561e-01 -9.93909366910e-01 
-9.95620245996e-01 -9.96365914013e-01 -9.96528537298e-01 -2.76817038003e-16 
-1.80653064099e-02 -4.21359975201e-02 -7.14049724484e-02 -1.04768524048e-01 
-1.41165560234e-01 -1.79628761841e-01 -2.19388029192e-01 -2.59823192377e-01 
-3.00529025450e-01 -3.41141552329e-01 -3.81403679657e-01 -4.21095899189e-01 
-4.60110020387e-01 -4.98299247075e-01 -5.35561190505e-01 -5.71793892590e-01 
-6.06950044815e-01 -6.40945336021e-01 -6.73715824605e-01 -7.05201483141e-01 
-7.35345150526e-01 -7.64091766702e-01 -7.91387797658e-01 -8.17180795155e-01 
-8.41409500515e-01 -8.64042440607e-01 -8.85018550413e-01 -9.04287386732e-01 
-9.21789795395e-01 -9.37498401183e-01 -9.51359261659e-01 -9.63337143636e-01 
-9.73406137795e-01 -9.81582316330e-01 -9.87903258276e-01 -9.92471183255e-01 
-9.95464971702e-01 -9.97156770381e-01 -9.97893619803e-01 -9.98056492806e-01 
-2.77117788083e-16 -1.80653067312e-02 -4.21454278432e-02 -7.14341972294e-02 
-1.04827558127e-01 -1.41263526205e-01 -1.79773649888e-01 -2.19586679880e-01 
-2.60081287439e-01 -3.00851241280e-01 -3.41531500092e-01 -3.81863981028e-01 
-4.21628178904e-01 -4.60715061508e-01 -4.98976892650e-01 -5.36310412758e-01 
-5.72612795262e-01 -6.07835984046e-01 -6.41894876236e-01 -6.74724817604e-01 
-7.06265126528e-01 -7.36458054861e-01 -7.65248030906e-01 -7.92581092917e-01 
-8.18404456848e-01 -8.42656620306e-01 -8.65306002693e-01 -8.86291520094e-01 
-9.05562852633e-01 -9.23061121156e-01 -9.38759386261e-01 -9.52604346618e-01 
-9.64561649119e-01 -9.74606566177e-01 -9.82756643243e-01 -9.89051333561e-01 
-9.93595036301e-01 -9.96568948464e-01 -9.98247196442e-01 -9.98977788949e-01 
-9.99140839249e-01 -2.77296864484e-16 -1.80653069946e-02 -4.21510271646e-02 
-7.14515523856e-02 -1.04862621195e-01 -1.41321721890e-01 -1.79859732113e-01 
-2.19704722380e-01 -2.60234676750e-01 -3.01042768741e-01 -3.41763324336e-01 
-3.82137673000e-01 -4.21944716566e-01 -4.61074921979e-01 -4.99379992871e-01 
-5.36756150419e-01 -5.73100049714e-01 -6.08363188181e-01 -6.42459989821e-01 
-6.75325374350e-01 -7.06898268851e-01 -7.37120573953e-01 -7.65936411721e-01 
-7.93291564315e-01 -8.19133046528e-01 -8.43399209840e-01 -8.66058408976e-01 
-8.87049548214e-01 -9.06322380845e-01 -9.23818191388e-01 -9.39510300242e-01 
-9.53345788290e-01 -9.65290827367e-01 -9.75321394690e-01 -9.83455914807e-01 
-9.89734958875e-01 -9.94264226163e-01 -9.97226294915e-01 -9.98896471103e-01 
-9.99623338509e-01 -9.99786494466e-01 -2.77356081543e-16 -1.80653071043e-02 
-4.21528572206e-02 -7.14572257656e-02 -1.04874085904e-01 -1.41340755882e-01 
-1.79887896499e-01 -2.19743358606e-01 -2.60284903928e-01 -3.01105513358e-01 
-3.41839307308e-01 -3.82227423797e-01 -4.22048570706e-01 -4.61193050788e-01 
-4.99512383277e-01 -5.36902617961e-01 -5.73260238346e-01 -6.08536593700e-01 
-6.42645950668e-01 -6.75523086980e-01 -7.07106799001e-01 -7.37338869810e-01 
-7.66163318626e-01 -7.93525841295e-01 -8.19373384383e-01 -8.43644249291e-01 
-8.66306767603e-01 -8.87299837859e-01 -9.06573235754e-01 -9.24068298183e-01 
-9.39758429942e-01 -9.53590836889e-01 -9.65531863413e-01 -9.75557719196e-01 
-9.83687119531e-01 -9.89961005882e-01 -9.94485508807e-01 -9.97443665211e-01 
-9.99111173344e-01 -9.99836809024e-01 -1.00000000000e+00 -2.77296864484e-16 
-1.80653069717e-02 -4.21509642593e-02 -7.14513591265e-02 -1.04862236448e-01 
-1.41321096417e-01 -1.79858831629e-01 -2.19703527763e-01 -2.60233183490e-01 
-3.01040984754e-01 -3.41761268627e-01 -3.82135373413e-01 -4.21942207763e-01 
-4.61072243198e-01 -4.99377186364e-01 -5.36753259894e-01 -5.73097118908e-01 
-6.08360259846e-01 -6.42457104604e-01 -6.75322570177e-01 -7.06895580232e-01 
-7.37118031617e-01 -7.65934042020e-01 -7.93289388969e-01 -8.19131082243e-01 
-8.43397468009e-01 -8.66056895567e-01 -8.87048263389e-01 -9.06321318957e-01 
-9.23817340999e-01 -9.39509644716e-01 -9.53345306031e-01 -9.65290492838e-01 
-9.75321179651e-01 -9.83455790220e-01 -9.89734896701e-01 -9.94264201678e-01 
-9.97226288771e-01 -9.98896470826e-01 -9.99623338538e-01 -9.99786494466e-01 
-2.77117788083e-16 -1.80653066849e-02 -4.21453014210e-02 -7.14338088718e-02 
-1.04826785016e-01 -1.41262269452e-01 -1.79771840649e-01 -2.19584279812e-01 
-2.60078287568e-01 -3.00847657625e-01 -3.41527370952e-01 -3.81859362452e-01 
-4.21623140617e-01 -4.60709682383e-01 -4.98971257580e-01 -5.36304609499e-01 
-5.72606911597e-01 -6.07830105728e-01 -6.41889084779e-01 -6.74719189026e-01 
-7.06259729994e-01 -7.36452951952e-01 -7.65243274435e-01 -7.92576726426e-01 
-8.18400513838e-01 -8.42653123642e-01 -8.65302964373e-01 -8.86288940492e-01 
-9.05560720469e-01 -9.23059413530e-01 -9.38758069840e-01 -9.52603378098e-01 
-9.64560977271e-01 -9.74606134327e-01 -9.82756393086e-01 -9.89051208777e-01 
-9.93594987215e-01 -9.96568936185e-01 -9.98247195898e-01 -9.98977788984e-01 
-9.99140839249e-01 -2.76817038003e-16 -1.80653063412e-02 -4.21358067824e-02 
-7.14043866094e-02 -1.04767357939e-01 -1.41163664815e-01 -1.79626033419e-01 
-2.19384410128e-01 -2.59818669377e-01 -3.00523622949e-01 -3.41135328377e-01 
-3.81396719042e-01 -4.21088307255e-01 -4.60101916180e-01 -4.98290758605e-01 
-5.35552449974e-01 -5.71785032131e-01 -6.06941193399e-01 -6.40936616164e-01 
-6.73707350504e-01 -7.05193358661e-01 -7.35337468130e-01 -7.64084605694e-01 
-7.91381223447e-01 -8.17174858095e-01 -8.41404235020e-01 -8.64037864799e-01 
-8.85014664964e-01 -9.04284174808e-01 -9.21787222677e-01 -9.37496417633e-01 
-9.51357802199e-01 -9.63336131209e-01 -9.73405487090e-01 -9.81581939523e-01 
