       5
 1.01600000000e-01  6.77333333333e-02  3.38666666667e-02  0.00000000000e+00 
 1.52496568351e+00  1.49013333333e+00  1.45626666667e+00  1.42240000000e+00 
 1.38853333333e+00  1.35466666667e+00  1.32080000000e+00  1.28693333333e+00 
 1.25306666667e+00  1.21920000000e+00  1.18533333333e+00  1.15146666667e+00 
 1.11760000000e+00  1.08373333333e+00  1.04986666667e+00  1.01600000000e+00 
 9.82133333333e-01  9.48266666667e-01  9.14400000000e-01  8.80533333333e-01 
 8.46666666667e-01  8.12800000000e-01  7.78933333333e-01  7.45066666667e-01 
 7.11200000000e-01  6.77333333333e-01  6.43466666667e-01  6.09600000000e-01 
 5.75733333333e-01  5.41866666667e-01  5.08000000000e-01  4.74133333333e-01 
 4.40266666667e-01  4.06400000000e-01  3.72533333333e-01  3.38666666667e-01 
 3.04800000000e-01  2.70933333333e-01  2.37066666667e-01  2.03200000000e-01 
 1.69333333333e-01  1.35466666667e-01  1.01600000000e-01  6.77333333333e-02 
 3.38666666667e-02  0.00000000000e+00  1.52493509749e+00  1.49013333333e+00 
 1.45626666667e+00  1.42240000000e+00  1.38853333333e+00  1.35466666667e+00 
 1.32080000000e+00  1.28693333333e+00  1.25306666667e+00  1.21920000000e+00 
 1.18533333333e+00  1.15146666667e+00  1.11760000000e+00  1.08373333333e+00 
 1.04986666667e+00  1.01600000000e+00  9.82133333333e-01  9.48266666667e-01 
 9.14400000000e-01  8.80533333333e-01  8.46666666667e-01  8.12800000000e-01 
 7.78933333333e-01  7.45066666667e-01  7.11200000000e-01  6.77333333333e-01 
 6.43466666667e-01  6.09600000000e-01  5.75733333333e-01  5.41866666667e-01 
 5.08000000000e-01  4.74133333333e-01  4.40266666667e-01  4.06400000000e-01 
 3.72533333333e-01  3.38666666667e-01  3.04800000000e-01  2.70933333333e-01 
 2.37066666667e-01  2.03200000000e-01  1.69333333333e-01  1.35466666667e-01 
 1.01600000000e-01  6.77333333333e-02  3.38666666667e-02  0.00000000000e+00 
 1.52489732575e+00  1.49013333333e+00  1.45626666667e+00  1.42240000000e+00 
 1.38853333333e+00  1.35466666667e+00  1.32080000000e+00  1.28693333333e+00 
 1.25306666667e+00  1.21920000000e+00  1.18533333333e+00  1.15146666667e+00 
 1.11760000000e+00  1.08373333333e+00  1.04986666667e+00  1.01600000000e+00 
 9.82133333333e-01  9.48266666667e-01  9.14400000000e-01  8.80533333333e-01 
 8.46666666667e-01  8.12800000000e-01  7.78933333333e-01  7.45066666667e-01 
 7.11200000000e-01  6.77333333333e-01  6.43466666667e-01  6.09600000000e-01 
 5.75733333333e-01  5.41866666667e-01  5.08000000000e-01  4.74133333333e-01 
 4.40266666667e-01  4.06400000000e-01  3.72533333333e-01  3.38666666667e-01 
 3.04800000000e-01  2.70933333333e-01  2.37066666667e-01  2.03200000000e-01 
 1.69333333333e-01  1.35466666667e-01  1.01600000000e-01  6.77333333333e-02 
 3.38666666667e-02  0.00000000000e+00  1.52485378862e+00  1.49013333333e+00 
 1.45626666667e+00  1.42240000000e+00  1.38853333333e+00  1.35466666667e+00 
 1.32080000000e+00  1.28693333333e+00  1.25306666667e+00  1.21920000000e+00 
 1.18533333333e+00  1.15146666667e+00  1.11760000000e+00  1.08373333333e+00 
 1.04986666667e+00  1.01600000000e+00  9.82133333333e-01  9.48266666667e-01 
 9.14400000000e-01  8.80533333333e-01  8.46666666667e-01  8.12800000000e-01 
 7.78933333333e-01  7.45066666667e-01  7.11200000000e-01  6.77333333333e-01 
 6.43466666667e-01  6.09600000000e-01  5.75733333333e-01  5.41866666667e-01 
 5.08000000000e-01  4.74133333333e-01  4.40266666667e-01  4.06400000000e-01 
 3.72533333333e-01  3.38666666667e-01  3.04800000000e-01  2.70933333333e-01 
 2.37066666667e-01  2.03200000000e-01  1.69333333333e-01  1.35466666667e-01 
 1.01600000000e-01  6.77333333333e-02  3.38666666667e-02  0.00000000000e+00 
 1.52480561132e+00  1.49013333333e+00  1.45626666667e+00  1.42240000000e+00 
 1.38853333333e+00  1.35466666667e+00  1.32080000000e+00  1.28693333333e+00 
 1.25306666667e+00  1.21920000000e+00  1.18533333333e+00  1.15146666667e+00 
 1.11760000000e+00  1.08373333333e+00  1.04986666667e+00  1.01600000000e+00 
 9.82133333333e-01  9.48266666667e-01  9.14400000000e-01  8.80533333333e-01 
 8.46666666667e-01  8.12800000000e-01  7.78933333333e-01  7.45066666667e-01 
 7.11200000000e-01  6.77333333333e-01  6.43466666667e-01  6.09600000000e-01 
 5.75733333333e-01  5.41866666667e-01  5.08000000000e-01  4.74133333333e-01 
 4.40266666667e-01  4.06400000000e-01  3.72533333333e-01  3.38666666667e-01 
 3.04800000000e-01  2.70933333333e-01  2.37066666667e-01  2.03200000000e-01 
 1.69333333333e-01  1.35466666667e-01  1.01600000000e-01  6.77333333333e-02 
 3.38666666667e-02  0.00000000000e+00  1.52475376100e+00  1.49013333333e+00 
 1.45626666667e+00  1.42240000000e+00  1.38853333333e+00  1.35466666667e+00 
 1.32080000000e+00  1.28693333333e+00  1.25306666667e+00  1.21920000000e+00 
 1.18533333333e+00  1.15146666667e+00  1.11760000000e+00  1.08373333333e+00 
 1.04986666667e+00  1.01600000000e+00  9.82133333333e-01  9.48266666667e-01 
 9.14400000000e-01  8.80533333333e-01  8.46666666667e-01  8.12800000000e-01 
 7.78933333333e-01  7.45066666667e-01  7.11200000000e-01  6.77333333333e-01 
 6.43466666667e-01  6.09600000000e-01  5.75733333333e-01  5.41866666667e-01 
 5.08000000000e-01  4.74133333333e-01  4.40266666667e-01  4.06400000000e-01 
 3.72533333333e-01  3.38666666667e-01  3.04800000000e-01  2.70933333333e-01 
 2.37066666667e-01  2.03200000000e-01  1.69333333333e-01  1.35466666667e-01 
 1.01600000000e-01  6.77333333333e-02  3.38666666667e-02  0.00000000000e+00 
 1.52469900473e+00  1.49013333333e+00  1.45626666667e+00  1.42240000000e+00 
 1.38853333333e+00  1.35466666667e+00  1.32080000000e+00  1.28693333333e+00 
 1.25306666667e+00  1.21920000000e+00  1.18533333333e+00  1.15146666667e+00 
 1.11760000000e+00  1.08373333333e+00  1.04986666667e+00  1.01600000000e+00 
 9.82133333333e-01  9.48266666667e-01  9.14400000000e-01  8.80533333333e-01 
 8.46666666667e-01  8.12800000000e-01  7.78933333333e-01  7.45066666667e-01 
 7.11200000000e-01  6.77333333333e-01  6.43466666667e-01  6.09600000000e-01 
 5.75733333333e-01  5.41866666667e-01  5.08000000000e-01  4.74133333333e-01 
 4.40266666667e-01  4.06400000000e-01  3.72533333333e-01  3.38666666667e-01 
 3.04800000000e-01  2.70933333333e-01  2.37066666667e-01  2.03200000000e-01 
 1.69333333333e-01  1.35466666667e-01  1.01600000000e-01  6.77333333333e-02 
 3.38666666667e-02  0.00000000000e+00  1.52464200872e+00  1.49013333333e+00 
 1.45626666667e+00  1.42240000000e+00  1.38853333333e+00  1.35466666667e+00 
 1.32080000000e+00  1.28693333333e+00  1.25306666667e+00  1.21920000000e+00 
 1.18533333333e+00  1.15146666667e+00  1.11760000000e+00  1.08373333333e+00 
 1.04986666667e+00  1.01600000000e+00  9.82133333333e-01  9.48266666667e-01 
 9.14400000000e-01  8.80533333333e-01  8.46666666667e-01  8.12800000000e-01 
 7.78933333333e-01  7.45066666667e-01  7.11200000000e-01  6.77333333333e-01 
 6.43466666667e-01  6.09600000000e-01  5.75733333333e-01  5.41866666667e-01 
 5.08000000000e-01  4.74133333333e-01  4.40266666667e-01  4.06400000000e-01 
 3.72533333333e-01  3.38666666667e-01  3.04800000000e-01  2.70933333333e-01 
 2.37066666667e-01  2.03200000000e-01  1.69333333333e-01  1.35466666667e-01 
 1.01600000000e-01  6.77333333333e-02  3.38666666667e-02  0.00000000000e+00 
 1.52458331992e+00  1.49013333333e+00  1.45626666667e+00  1.42240000000e+00 
 1.38853333333e+00  1.35466666667e+00  1.32080000000e+00  1.28693333333e+00 
 1.25306666667e+00  1.21920000000e+00  1.18533333333e+00  1.15146666667e+00 
 1.11760000000e+00  1.08373333333e+00  1.04986666667e+00  1.01600000000e+00 
 9.82133333333e-01  9.48266666667e-01  9.14400000000e-01  8.80533333333e-01 
 8.46666666667e-01  8.12800000000e-01  7.78933333333e-01  7.45066666667e-01 
 7.11200000000e-01  6.77333333333e-01  6.43466666667e-01  6.09600000000e-01 
 5.75733333333e-01  5.41866666667e-01  5.08000000000e-01  4.74133333333e-01 
 4.40266666667e-01  4.06400000000e-01  3.72533333333e-01  3.38666666667e-01 
 3.04800000000e-01  2.70933333333e-01  2.37066666667e-01  2.03200000000e-01 
 1.69333333333e-01  1.35466666667e-01  1.01600000000e-01  6.77333333333e-02 
 3.38666666667e-02  0.00000000000e+00  1.52452343180e+00  1.49013333333e+00 
 1.45626666667e+00  1.42240000000e+00  1.38853333333e+00  1.35466666667e+00 
 1.32080000000e+00  1.28693333333e+00  1.25306666667e+00  1.21920000000e+00 
 1.18533333333e+00  1.15146666667e+00  1.11760000000e+00  1.08373333333e+00 
 1.04986666667e+00  1.01600000000e+00  9.82133333333e-01  9.48266666667e-01 
 9.14400000000e-01  8.80533333333e-01  8.46666666667e-01  8.12800000000e-01 
 7.78933333333e-01  7.45066666667e-01  7.11200000000e-01  6.77333333333e-01 
 6.43466666667e-01  6.09600000000e-01  5.75733333333e-01  5.41866666667e-01 
 5.08000000000e-01  4.74133333333e-01  4.40266666667e-01  4.06400000000e-01 
 3.72533333333e-01  3.38666666667e-01  3.04800000000e-01  2.70933333333e-01 
 2.37066666667e-01  2.03200000000e-01  1.69333333333e-01  1.35466666667e-01 
 1.01600000000e-01  6.77333333333e-02  3.38666666667e-02  0.00000000000e+00 
 1.52446277759e+00  1.49013333333e+00  1.45626666667e+00  1.42240000000e+00 
 1.38853333333e+00  1.35466666667e+00  1.32080000000e+00  1.28693333333e+00 
 1.25306666667e+00  1.21920000000e+00  1.18533333333e+00  1.15146666667e+00 
 1.11760000000e+00  1.08373333333e+00  1.04986666667e+00  1.01600000000e+00 
 9.82133333333e-01  9.48266666667e-01  9.14400000000e-01  8.80533333333e-01 
 8.46666666667e-01  8.12800000000e-01  7.78933333333e-01  7.45066666667e-01 
 7.11200000000e-01  6.77333333333e-01  6.43466666667e-01  6.09600000000e-01 
 5.75733333333e-01  5.41866666667e-01  5.08000000000e-01  4.74133333333e-01 
 4.40266666667e-01  4.06400000000e-01  3.72533333333e-01  3.38666666667e-01 
 3.04800000000e-01  2.70933333333e-01  2.37066666667e-01  2.03200000000e-01 
 1.69333333333e-01  1.35466666667e-01  1.01600000000e-01  6.77333333333e-02 
 3.38666666667e-02  0.00000000000e+00  1.52440176681e+00  1.49013333333e+00 
 1.45626666667e+00  1.42240000000e+00  1.38853333333e+00  1.35466666667e+00 
 1.32080000000e+00  1.28693333333e+00  1.25306666667e+00  1.21920000000e+00 
 1.18533333333e+00  1.15146666667e+00  1.11760000000e+00  1.08373333333e+00 
 1.04986666667e+00  1.01600000000e+00  9.82133333333e-01  9.48266666667e-01 
 9.14400000000e-01  8.80533333333e-01  8.46666666667e-01  8.12800000000e-01 
 7.78933333333e-01  7.45066666667e-01  7.11200000000e-01  6.77333333333e-01 
 6.43466666667e-01  6.09600000000e-01  5.75733333333e-01  5.41866666667e-01 
 5.08000000000e-01  4.74133333333e-01  4.40266666667e-01  4.06400000000e-01 
 3.72533333333e-01  3.38666666667e-01  3.04800000000e-01  2.70933333333e-01 
 2.37066666667e-01  2.03200000000e-01  1.69333333333e-01  1.35466666667e-01 
 1.01600000000e-01  6.77333333333e-02  3.38666666667e-02  0.00000000000e+00 
 1.52434079184e+00  1.49013333333e+00  1.45626666667e+00  1.42240000000e+00 
 1.38853333333e+00  1.35466666667e+00  1.32080000000e+00  1.28693333333e+00 
 1.25306666667e+00  1.21920000000e+00  1.18533333333e+00  1.15146666667e+00 
 1.11760000000e+00  1.08373333333e+00  1.04986666667e+00  1.01600000000e+00 
 9.82133333333e-01  9.48266666667e-01  9.14400000000e-01  8.80533333333e-01 
 8.46666666667e-01  8.12800000000e-01  7.78933333333e-01  7.45066666667e-01 
 7.11200000000e-01  6.77333333333e-01  6.43466666667e-01  6.09600000000e-01 
 5.75733333333e-01  5.41866666667e-01  5.08000000000e-01  4.74133333333e-01 
 4.40266666667e-01  4.06400000000e-01  3.72533333333e-01  3.38666666667e-01 
 3.04800000000e-01  2.70933333333e-01  2.37066666667e-01  2.03200000000e-01 
 1.69333333333e-01  1.35466666667e-01  1.01600000000e-01  6.77333333333e-02 
 3.38666666667e-02  0.00000000000e+00  1.52428024847e+00  1.49013333333e+00 
 1.45626666667e+00  1.42240000000e+00  1.38853333333e+00  1.35466666667e+00 
 1.32080000000e+00  1.28693333333e+00  1.25306666667e+00  1.21920000000e+00 
 1.18533333333e+00  1.15146666667e+00  1.11760000000e+00  1.08373333333e+00 
 1.04986666667e+00  1.01600000000e+00  9.82133333333e-01  9.48266666667e-01 
 9.14400000000e-01  8.80533333333e-01  8.46666666667e-01  8.12800000000e-01 
 7.78933333333e-01  7.45066666667e-01  7.11200000000e-01  6.77333333333e-01 
 6.43466666667e-01  6.09600000000e-01  5.75733333333e-01  5.41866666667e-01 
 5.08000000000e-01  4.74133333333e-01  4.40266666667e-01  4.06400000000e-01 
 3.72533333333e-01  3.38666666667e-01  3.04800000000e-01  2.70933333333e-01 
 2.37066666667e-01  2.03200000000e-01  1.69333333333e-01  1.35466666667e-01 
 1.01600000000e-01  6.77333333333e-02  3.38666666667e-02  0.00000000000e+00 
 1.52422054658e+00  1.49013333333e+00  1.45626666667e+00  1.42240000000e+00 
 1.38853333333e+00  1.35466666667e+00  1.32080000000e+00  1.28693333333e+00 
 1.25306666667e+00  1.21920000000e+00  1.18533333333e+00  1.15146666667e+00 
 1.11760000000e+00  1.08373333333e+00  1.04986666667e+00  1.01600000000e+00 
 9.82133333333e-01  9.48266666667e-01  9.14400000000e-01  8.80533333333e-01 
 8.46666666667e-01  8.12800000000e-01  7.78933333333e-01  7.45066666667e-01 
 7.11200000000e-01  6.77333333333e-01  6.43466666667e-01  6.09600000000e-01 
 5.75733333333e-01  5.41866666667e-01  5.08000000000e-01  4.74133333333e-01 
 4.40266666667e-01  4.06400000000e-01  3.72533333333e-01  3.38666666667e-01 
 3.04800000000e-01  2.70933333333e-01  2.37066666667e-01  2.03200000000e-01 
 1.69333333333e-01  1.35466666667e-01  1.01600000000e-01  6.77333333333e-02 
 3.38666666667e-02  0.00000000000e+00  1.52416213413e+00  1.49013333333e+00 
 1.45626666667e+00  1.42240000000e+00  1.38853333333e+00  1.35466666667e+00 
 1.32080000000e+00  1.28693333333e+00  1.25306666667e+00  1.21920000000e+00 
 1.18533333333e+00  1.15146666667e+00  1.11760000000e+00  1.08373333333e+00 
 1.04986666667e+00  1.01600000000e+00  9.82133333333e-01  9.48266666667e-01 
 9.14400000000e-01  8.80533333333e-01  8.46666666667e-01  8.12800000000e-01 
 7.78933333333e-01  7.45066666667e-01  7.11200000000e-01  6.77333333333e-01 
 6.43466666667e-01  6.09600000000e-01  5.75733333333e-01  5.41866666667e-01 
 5.08000000000e-01  4.74133333333e-01  4.40266666667e-01  4.06400000000e-01 
 3.72533333333e-01  3.38666666667e-01  3.04800000000e-01  2.70933333333e-01 
 2.37066666667e-01  2.03200000000e-01  1.69333333333e-01  1.35466666667e-01 
 1.01600000000e-01  6.77333333333e-02  3.38666666667e-02  0.00000000000e+00 
 1.52410550567e+00  1.49013333333e+00  1.45626666667e+00  1.42240000000e+00 
 1.38853333333e+00  1.35466666667e+00  1.32080000000e+00  1.28693333333e+00 
 1.25306666667e+00  1.21920000000e+00  1.18533333333e+00  1.15146666667e+00 
 1.11760000000e+00  1.08373333333e+00  1.04986666667e+00  1.01600000000e+00 
 9.82133333333e-01  9.48266666667e-01  9.14400000000e-01  8.80533333333e-01 
 8.46666666667e-01  8.12800000000e-01  7.78933333333e-01  7.45066666667e-01 
 7.11200000000e-01  6.77333333333e-01  6.43466666667e-01  6.09600000000e-01 
 5.75733333333e-01  5.41866666667e-01  5.08000000000e-01  4.74133333333e-01 
 4.40266666667e-01  4.06400000000e-01  3.72533333333e-01  3.38666666667e-01 
 3.04800000000e-01  2.70933333333e-01  2.37066666667e-01  2.03200000000e-01 
 1.69333333333e-01  1.35466666667e-01  1.01600000000e-01  6.77333333333e-02 
 3.38666666667e-02  0.00000000000e+00  1.52405123577e+00  1.49013333333e+00 
 1.45626666667e+00  1.42240000000e+00  1.38853333333e+00  1.35466666667e+00 
 1.32080000000e+00  1.28693333333e+00  1.25306666667e+00  1.21920000000e+00 
 1.18533333333e+00  1.15146666667e+00  1.11760000000e+00  1.08373333333e+00 
 1.04986666667e+00  1.01600000000e+00  9.82133333333e-01  9.48266666667e-01 
 9.14400000000e-01  8.80533333333e-01  8.46666666667e-01  8.12800000000e-01 
 7.78933333333e-01  7.45066666667e-01  7.11200000000e-01  6.77333333333e-01 
 6.43466666667e-01  6.09600000000e-01  5.75733333333e-01  5.41866666667e-01 
 5.08000000000e-01  4.74133333333e-01  4.40266666667e-01  4.06400000000e-01 
 3.72533333333e-01  3.38666666667e-01  3.04800000000e-01  2.70933333333e-01 
 2.37066666667e-01  2.03200000000e-01  1.69333333333e-01  1.35466666667e-01 
 1.01600000000e-01  6.77333333333e-02  3.38666666667e-02  0.00000000000e+00 
 1.52400000000e+00  1.49013333333e+00  1.45626666667e+00  1.42240000000e+00 
 1.38853333333e+00  1.35466666667e+00  1.32080000000e+00  1.28693333333e+00 
 1.25306666667e+00  1.21920000000e+00  1.18533333333e+00  1.15146666667e+00 
 1.11760000000e+00  1.08373333333e+00  1.04986666667e+00  1.01600000000e+00 
 9.82133333333e-01  9.48266666667e-01  9.14400000000e-01  8.80533333333e-01 
 8.46666666667e-01  8.12800000000e-01  7.78933333333e-01  7.45066666667e-01 
 7.11200000000e-01  6.77333333333e-01  6.43466666667e-01  6.09600000000e-01 
 5.75733333333e-01  5.41866666667e-01  5.08000000000e-01  4.74133333333e-01 
 4.40266666667e-01  4.06400000000e-01  3.72533333333e-01  3.38666666667e-01 
 3.04800000000e-01  2.70933333333e-01  2.37066666667e-01  2.03200000000e-01 
 1.69333333333e-01  1.35466666667e-01  1.01600000000e-01  6.77333333333e-02 
 3.38666666667e-02  0.00000000000e+00 
 6.34000000002e-01  6.43542617985e-01  6.53085235967e-01  6.62627853950e-01 
 6.72170471932e-01  6.81713089915e-01  6.91255707897e-01  7.00798325879e-01 
 7.10340943862e-01  7.19883561844e-01  7.29426179827e-01  7.38968797809e-01 
 7.48511415792e-01  7.58054033774e-01  7.67596651756e-01  7.77139269739e-01 
 7.86681887721e-01  7.96224505704e-01  8.05767123686e-01  8.15309741669e-01 
 8.24852359651e-01  8.34394977634e-01  8.43937595616e-01  8.53480213598e-01 
 8.63022831581e-01  8.72565449563e-01  8.82108067546e-01  8.91650685528e-01 
 9.01193303511e-01  9.10735921493e-01  9.20278539476e-01  9.29821157458e-01 
 9.39363775440e-01  9.48906393423e-01  9.58449011405e-01  9.67991629388e-01 
 9.77534247370e-01  9.87076865353e-01  9.96619483335e-01  1.00616210132e+00 
 1.01570471930e+00  1.02524733728e+00  1.03478995526e+00  1.04433257325e+00 
 1.05387519123e+00  1.06341780921e+00  6.34049033064e-01  6.43591209059e-01 
 6.53133385054e-01  6.62675561049e-01  6.72217737044e-01  6.81759913039e-01 
 6.91302089034e-01  7.00844265029e-01  7.10386441024e-01  7.19928617018e-01 
 7.29470793013e-01  7.39012969008e-01  7.48555145003e-01  7.58097320998e-01 
 7.67639496993e-01  7.77181672988e-01  7.86723848983e-01  7.96266024978e-01 
 8.05808200973e-01  8.15350376968e-01  8.24892552963e-01  8.34434728958e-01 
 8.43976904953e-01  8.53519080948e-01  8.63061256943e-01  8.72603432938e-01 
 8.82145608933e-01  8.91687784928e-01  9.01229960923e-01  9.10772136918e-01 
 9.20314312913e-01  9.29856488908e-01  9.39398664903e-01  9.48940840898e-01 
 9.58483016893e-01  9.68025192888e-01  9.77567368883e-01  9.87109544878e-01 
 9.96651720873e-01  1.00619389687e+00  1.01573607286e+00  1.02527824886e+00 
 1.03482042485e+00  1.04436260085e+00  1.05390477684e+00  1.06344695284e+00 
 6.34099291429e-01  6.43641001967e-01  6.53182712506e-01  6.62724423045e-01 
 6.72266133584e-01  6.81807844123e-01  6.91349554662e-01  7.00891265201e-01 
 7.10432975740e-01  7.19974686279e-01  7.29516396818e-01  7.39058107357e-01 
 7.48599817896e-01  7.58141528435e-01  7.67683238974e-01  7.77224949513e-01 
 7.86766660052e-01  7.96308370591e-01  8.05850081130e-01  8.15391791669e-01 
 8.24933502208e-01  8.34475212747e-01  8.44016923285e-01  8.53558633824e-01 
 8.63100344363e-01  8.72642054902e-01  8.82183765441e-01  8.91725475980e-01 
 9.01267186519e-01  9.10808897058e-01  9.20350607597e-01  9.29892318136e-01 
 9.39434028675e-01  9.48975739214e-01  9.58517449753e-01  9.68059160292e-01 
 9.77600870831e-01  9.87142581370e-01  9.96684291909e-01  1.00622600245e+00 
 1.01576771299e+00  1.02530942353e+00  1.03485113406e+00  1.04439284460e+00 
 1.05393455514e+00  1.06347626568e+00  6.34150433563e-01  6.43691661518e-01 
 6.53232889473e-01  6.62774117428e-01  6.72315345383e-01  6.81856573338e-01 
 6.91397801293e-01  7.00939029248e-01  7.10480257203e-01  7.20021485158e-01 
 7.29562713113e-01  7.39103941068e-01  7.48645169023e-01  7.58186396978e-01 
 7.67727624933e-01  7.77268852888e-01  7.86810080843e-01  7.96351308798e-01 
 8.05892536753e-01  8.15433764708e-01  8.24974992663e-01  8.34516220618e-01 
 8.44057448573e-01  8.53598676528e-01  8.63139904483e-01  8.72681132438e-01 
 8.82222360393e-01  8.91763588348e-01  9.01304816303e-01  9.10846044258e-01 
 9.20387272214e-01  9.29928500169e-01  9.39469728124e-01  9.49010956079e-01 
 9.58552184034e-01  9.68093411989e-01  9.77634639944e-01  9.87175867899e-01 
 9.96717095854e-01  1.00625832381e+00  1.01579955176e+00  1.02534077972e+00 
 1.03488200767e+00  1.04442323563e+00  1.05396446358e+00  1.06350569154e+00 
 6.34202207673e-01  6.43742940684e-01  6.53283673696e-01  6.62824406707e-01 
 6.72365139719e-01  6.81905872730e-01  6.91446605742e-01  7.00987338753e-01 
 7.10528071765e-01  7.20068804776e-01  7.29609537788e-01  7.39150270799e-01 
 7.48691003811e-01  7.58231736822e-01  7.67772469834e-01  7.77313202845e-01 
 7.86853935857e-01  7.96394668869e-01  8.05935401880e-01  8.15476134892e-01 
 8.25016867903e-01  8.34557600915e-01  8.44098333926e-01  8.53639066938e-01 
 8.63179799949e-01  8.72720532961e-01  8.82261265972e-01  8.91801998984e-01 
 9.01342731995e-01  9.10883465007e-01  9.20424198018e-01  9.29964931030e-01 
 9.39505664041e-01  9.49046397053e-01  9.58587130064e-01  9.68127863076e-01 
 9.77668596087e-01  9.87209329099e-01  9.96750062110e-01  1.00629079512e+00 
 1.01583152813e+00  1.02537226114e+00  1.03491299416e+00  1.04445372717e+00 
 1.05399446018e+00  1.06353519319e+00  6.34254441321e-01  6.43794670376e-01 
 6.53334899431e-01  6.62875128486e-01  6.72415357542e-01  6.81955586597e-01 
 6.91495815652e-01  7.01036044707e-01  7.10576273762e-01  7.20116502817e-01 
 7.29656731872e-01  7.39196960927e-01  7.48737189982e-01  7.58277419037e-01 
 7.67817648092e-01  7.77357877148e-01  7.86898106203e-01  7.96438335258e-01 
 8.05978564313e-01  8.15518793368e-01  8.25059022423e-01  8.34599251478e-01 
 8.44139480533e-01  8.53679709588e-01  8.63219938643e-01  8.72760167698e-01 
 8.82300396754e-01  8.91840625809e-01  9.01380854864e-01  9.10921083919e-01 
 9.20461312974e-01  9.30001542029e-01  9.39541771084e-01  9.49082000139e-01 
 9.58622229194e-01  9.68162458249e-01  9.77702687304e-01  9.87242916359e-01 
 9.96783145415e-01  1.00632337447e+00  1.01586360352e+00  1.02540383258e+00 
 1.03494406163e+00  1.04448429069e+00  1.05402451975e+00  1.06356474880e+00 
 6.34306986613e-01  6.43846705571e-01  6.53386424528e-01  6.62926143485e-01 
 6.72465862442e-01  6.82005581399e-01  6.91545300356e-01  7.01085019314e-01 
 7.10624738271e-01  7.20164457228e-01  7.29704176185e-01  7.39243895142e-01 
 7.48783614099e-01  7.58323333057e-01  7.67863052014e-01  7.77402770971e-01 
 7.86942489928e-01  7.96482208885e-01  8.06021927843e-01  8.15561646800e-01 
 8.25101365757e-01  8.34641084714e-01  8.44180803671e-01  8.53720522628e-01 
 8.63260241586e-01  8.72799960543e-01  8.82339679500e-01  8.91879398457e-01 
 9.01419117414e-01  9.10958836371e-01  9.20498555329e-01  9.30038274286e-01 
 9.39577993243e-01  9.49117712200e-01  9.58657431157e-01  9.68197150114e-01 
 9.77736869072e-01  9.87276588029e-01  9.96816306986e-01  1.00635602594e+00 
 1.01589574490e+00  1.02543546386e+00  1.03497518281e+00  1.04451490177e+00 
 1.05405462073e+00  1.06359433969e+00  6.34359727628e-01  6.43898932634e-01 
 6.53438137640e-01  6.62977342646e-01  6.72516547652e-01  6.82055752658e-01 
 6.91594957664e-01  7.01134162670e-01  7.10673367676e-01  7.20212572682e-01 
 7.29751777688e-01  7.39290982694e-01  7.48830187700e-01  7.58369392706e-01 
 7.67908597712e-01  7.77447802718e-01  7.86987007724e-01  7.96526212730e-01 
 8.06065417737e-01  8.15604622743e-01  8.25143827749e-01  8.34683032755e-01 
 8.44222237761e-01  8.53761442767e-01  8.63300647773e-01  8.72839852779e-01 
 8.82379057785e-01  8.91918262791e-01  9.01457467797e-01  9.10996672803e-01 
 9.20535877809e-01  9.30075082815e-01  9.39614287821e-01  9.49153492827e-01 
 9.58692697833e-01  9.68231902839e-01  9.77771107845e-01  9.87310312851e-01 
 9.96849517857e-01  1.00638872286e+00  1.01592792787e+00  1.02546713287e+00 
 1.03500633788e+00  1.04454554289e+00  1.05408474789e+00  1.06362395290e+00 
 6.34412558180e-01  6.43951247481e-01  6.53489936781e-01  6.63028626082e-01 
 6.72567315383e-01  6.82106004684e-01  6.91644693985e-01  7.01183383286e-01 
 7.10722072587e-01  7.20260761888e-01  7.29799451189e-01  7.39338140490e-01 
 7.48876829791e-01  7.58415519092e-01  7.67954208393e-01  7.77492897694e-01 
 7.87031586995e-01  7.96570276295e-01  8.06108965596e-01  8.15647654897e-01 
 8.25186344198e-01  8.34725033499e-01  8.44263722800e-01  8.53802412101e-01 
 8.63341101402e-01  8.72879790703e-01  8.82418480004e-01  8.91957169305e-01 
 9.01495858606e-01  9.11034547907e-01  9.20573237208e-01  9.30111926509e-01 
 9.39650615810e-01  9.49189305110e-01  9.58727994411e-01  9.68266683712e-01 
 9.77805373013e-01  9.87344062314e-01  9.96882751615e-01  1.00642144092e+00 
 1.01596013022e+00  1.02549881952e+00  1.03503750882e+00  1.04457619812e+00 
 1.05411488742e+00  1.06365357672e+00  6.34465379045e-01  6.44003552856e-01 
 6.53541726667e-01  6.63079900478e-01  6.72618074289e-01  6.82156248099e-01 
 6.91694421910e-01  7.01232595721e-01  7.10770769532e-01  7.20308943343e-01 
 7.29847117153e-01  7.39385290964e-01  7.48923464775e-01  7.58461638586e-01 
 7.67999812397e-01  7.77537986208e-01  7.87076160018e-01  7.96614333829e-01 
 8.06152507640e-01  8.15690681451e-01  8.25228855262e-01  8.34767029073e-01 
 8.44305202883e-01  8.53843376694e-01  8.63381550505e-01  8.72919724316e-01 
 8.82457898127e-01  8.91996071938e-01  9.01534245748e-01  9.11072419559e-01 
 9.20610593370e-01  9.30148767181e-01  9.39686940992e-01  9.49225114803e-01 
 9.58763288613e-01  9.68301462424e-01  9.77839636235e-01  9.87377810046e-01 
 9.96915983857e-01  1.00645415767e+00  1.01599233148e+00  1.02553050529e+00 
 1.03506867910e+00  1.04460685291e+00  1.05414502672e+00  1.06368320053e+00 
 6.34518090829e-01  6.44055751340e-01  6.53593411851e-01  6.63131072362e-01 
 6.72668732873e-01  6.82206393383e-01  6.91744053894e-01  7.01281714405e-01 
 7.10819374916e-01  7.20357035427e-01  7.29894695938e-01  7.39432356449e-01 
 7.48970016960e-01  7.58507677471e-01  7.68045337981e-01  7.77582998492e-01 
 7.87120659003e-01  7.96658319514e-01  8.06195980025e-01  8.15733640536e-01 
 8.25271301047e-01  8.34808961558e-01  8.44346622069e-01  8.53884282579e-01 
 8.63421943090e-01  8.72959603601e-01  8.82497264112e-01  8.92034924623e-01 
 9.01572585134e-01  9.11110245645e-01  9.20647906156e-01  9.30185566667e-01 
 9.39723227178e-01  9.49260887688e-01  9.58798548199e-01  9.68336208710e-01 
 9.77873869221e-01  9.87411529732e-01  9.96949190243e-01  1.00648685075e+00 
 1.01602451126e+00  1.02556217178e+00  1.03509983229e+00  1.04463749280e+00 
 1.05417515331e+00  1.06371281382e+00  6.34570584972e-01  6.44107736526e-01 
 6.53644888079e-01  6.63182039633e-01  6.72719191187e-01  6.82256342740e-01 
 6.91793494294e-01  7.01330645848e-01  7.10867797401e-01  7.20404948955e-01 
 7.29942100508e-01  7.39479252062e-01  7.49016403616e-01  7.58553555169e-01 
 7.68090706723e-01  7.77627858277e-01  7.87165009830e-01  7.96702161384e-01 
 8.06239312937e-01  8.15776464491e-01  8.25313616045e-01  8.34850767598e-01 
 8.44387919152e-01  8.53925070705e-01  8.63462222259e-01  8.72999373813e-01 
 8.82536525366e-01  8.92073676920e-01  9.01610828474e-01  9.11147980027e-01 
 9.20685131581e-01  9.30222283134e-01  9.39759434688e-01  9.49296586242e-01 
 9.58833737795e-01  9.68370889349e-01  9.77908040903e-01  9.87445192456e-01 
 9.96982344010e-01  1.00651949556e+00  1.01605664712e+00  1.02559379867e+00 
 1.03513095022e+00  1.04466810178e+00  1.05420525333e+00  1.06374240489e+00 
 6.34622739853e-01  6.44159389191e-01  6.53696038528e-01  6.63232687866e-01 
 6.72769337203e-01  6.82305986541e-01  6.91842635878e-01  7.01379285216e-01 
 7.10915934553e-01  7.20452583891e-01  7.29989233228e-01  7.39525882566e-01 
 7.49062531903e-01  7.58599181241e-01  7.68135830578e-01  7.77672479916e-01 
 7.87209129253e-01  7.96745778591e-01  8.06282427928e-01  8.15819077266e-01 
 8.25355726603e-01  8.34892375941e-01  8.44429025278e-01  8.53965674616e-01 
 8.63502323953e-01  8.73038973291e-01  8.82575622628e-01  8.92112271966e-01 
 9.01648921303e-01  9.11185570641e-01  9.20722219978e-01  9.30258869316e-01 
 9.39795518653e-01  9.49332167990e-01  9.58868817328e-01  9.68405466665e-01 
 9.77942116003e-01  9.87478765340e-01  9.97015414678e-01  1.00655206402e+00 
 1.01608871335e+00  1.02562536269e+00  1.03516201203e+00  1.04469866137e+00 
 1.05423531070e+00  1.06377196004e+00  6.34674409211e-01  6.44210565960e-01 
 6.53746722709e-01  6.63282879458e-01  6.72819036207e-01  6.82355192956e-01 
 6.91891349705e-01  7.01427506454e-01  7.10963663203e-01  7.20499819952e-01 
 7.30035976701e-01  7.39572133450e-01  7.49108290199e-01  7.58644446948e-01 
 7.68180603697e-01  7.77716760446e-01  7.87252917196e-01  7.96789073945e-01 
 8.06325230694e-01  8.15861387443e-01  8.25397544192e-01  8.34933700941e-01 
 8.44469857690e-01  8.54006014439e-01  8.63542171188e-01  8.73078327937e-01 
 8.82614484686e-01  8.92150641435e-01  9.01686798184e-01  9.11222954933e-01 
 9.20759111682e-01  9.30295268431e-01  9.39831425180e-01  9.49367581929e-01 
 9.58903738679e-01  9.68439895428e-01  9.77976052177e-01  9.87512208926e-01 
 9.97048365675e-01  1.00658452242e+00  1.01612067917e+00  1.02565683592e+00 
 1.03519299267e+00  1.04472914942e+00  1.05426530617e+00  1.06380146292e+00 
 6.34725395473e-01  6.44261073074e-01  6.53796750675e-01  6.63332428276e-01 
 6.72868105877e-01  6.82403783478e-01  6.91939461080e-01  7.01475138681e-01 
 7.11010816282e-01  7.20546493883e-01  7.30082171484e-01  7.39617849085e-01 
 7.49153526686e-01  7.58689204287e-01  7.68224881888e-01  7.77760559489e-01 
 7.87296237091e-01  7.96831914692e-01  8.06367592293e-01  8.15903269894e-01 
 8.25438947495e-01  8.34974625096e-01  8.44510302697e-01  8.54045980298e-01 
 8.63581657899e-01  8.73117335500e-01  8.82653013101e-01  8.92188690703e-01 
 9.01724368304e-01  9.11260045905e-01  9.20795723506e-01  9.30331401107e-01 
 9.39867078708e-01  9.49402756309e-01  9.58938433910e-01  9.68474111511e-01 
 9.78009789112e-01  9.87545466713e-01  9.97081144315e-01  1.00661682192e+00 
 1.01615249952e+00  1.02568817712e+00  1.03522385472e+00  1.04475953232e+00 
 1.05429520992e+00  1.06383088752e+00  6.34775455151e-01  6.44310671767e-01 
 6.53845888383e-01  6.63381105000e-01  6.72916321616e-01  6.82451538232e-01 
 6.91986754849e-01  7.01521971465e-01  7.11057188082e-01  7.20592404698e-01 
 7.30127621314e-01  7.39662837931e-01  7.49198054547e-01  7.58733271164e-01 
 7.68268487780e-01  7.77803704396e-01  7.87338921013e-01  7.96874137629e-01 
 8.06409354245e-01  8.15944570862e-01  8.25479787478e-01  8.35015004095e-01 
 8.44550220711e-01  8.54085437327e-01  8.63620653944e-01  8.73155870560e-01 
 8.82691087176e-01  8.92226303793e-01  9.01761520409e-01  9.11296737026e-01 
 9.20831953642e-01  9.30367170258e-01  9.39902386875e-01  9.49437603491e-01 
 9.58972820108e-01  9.68508036724e-01  9.78043253340e-01  9.87578469957e-01 
 9.97113686573e-01  1.00664890319e+00  1.01618411981e+00  1.02571933642e+00 
 1.03525455304e+00  1.04478976965e+00  1.05432498627e+00  1.06386020289e+00 
 6.34824186886e-01  6.44358968183e-01  6.53893749480e-01  6.63428530777e-01 
 6.72963312074e-01  6.82498093371e-01  6.92032874669e-01  7.01567655966e-01 
 7.11102437263e-01  7.20637218560e-01  7.30171999857e-01  7.39706781154e-01 
 7.49241562452e-01  7.58776343749e-01  7.68311125046e-01  7.77845906343e-01 
 7.87380687640e-01  7.96915468937e-01  8.06450250235e-01  8.15985031532e-01 
 8.25519812829e-01  8.35054594126e-01  8.44589375423e-01  8.54124156720e-01 
 8.63658938018e-01  8.73193719315e-01  8.82728500612e-01  8.92263281909e-01 
 9.01798063206e-01  9.11332844503e-01  9.20867625801e-01  9.30402407098e-01 
 9.39937188395e-01  9.49471969692e-01  9.59006750989e-01  9.68541532286e-01 
 9.78076313584e-01  9.87611094881e-01  9.97145876178e-01  1.00668065748e+00 
 1.01621543877e+00  1.02575022007e+00  1.03528500137e+00  1.04481978266e+00 
 1.05435456396e+00  1.06388934526e+00  6.34871056462e-01  6.44405437952e-01 
 6.53939819442e-01  6.63474200932e-01  6.73008582422e-01  6.82542963912e-01 
 6.92077345402e-01  7.01611726892e-01  7.11146108382e-01  7.20680489872e-01 
 7.30214871362e-01  7.39749252852e-01  7.49283634342e-01  7.58818015832e-01 
 7.68352397322e-01  7.77886778812e-01  7.87421160302e-01  7.96955541792e-01 
 8.06489923282e-01  8.16024304772e-01  8.25558686262e-01  8.35093067752e-01 
 8.44627449242e-01  8.54161830732e-01  8.63696212222e-01  8.73230593712e-01 
 8.82764975201e-01  8.92299356691e-01  9.01833738181e-01  9.11368119671e-01 
 9.20902501161e-01  9.30436882651e-01  9.39971264141e-01  9.49505645631e-01 
 9.59040027121e-01  9.68574408611e-01  9.78108790101e-01  9.87643171591e-01 
 9.97177553081e-01  1.00671193457e+00  1.01624631606e+00  1.02578069755e+00 
 1.03531507904e+00  1.04484946053e+00  1.05438384202e+00  1.06391822351e+00 
 6.34915024234e-01  6.44449059162e-01  6.53983094090e-01  6.63517129018e-01 
 6.73051163946e-01  6.82585198874e-01  6.92119233802e-01  7.01653268730e-01 
 7.11187303658e-01  7.20721338586e-01  7.30255373514e-01  7.39789408442e-01 
 7.49323443370e-01  7.58857478298e-01  7.68391513226e-01  7.77925548154e-01 
 7.87459583082e-01  7.96993618010e-01  8.06527652938e-01  8.16061687866e-01 
 8.25595722794e-01  8.35129757722e-01  8.44663792650e-01  8.54197827578e-01 
 8.63731862506e-01  8.73265897434e-01  8.82799932362e-01  8.92333967290e-01 
 9.01868002218e-01  9.11402037146e-01  9.20936072074e-01  9.30470107002e-01 
 9.40004141930e-01  9.49538176858e-01  9.59072211786e-01  9.68606246714e-01 
 9.78140281642e-01  9.87674316570e-01  9.97208351498e-01  1.00674238643e+00 
 1.01627642135e+00  1.02581045628e+00  1.03534449121e+00  1.04487852614e+00 
 1.05441256107e+00  1.06394659599e+00  6.34954387857e-01  6.44488154346e-01 
 6.54021920836e-01  6.63555687326e-01  6.73089453816e-01  6.82623220305e-01 
 6.92156986795e-01  7.01690753285e-01  7.11224519774e-01  7.20758286264e-01 
 7.30292052754e-01  7.39825819243e-01  7.49359585733e-01  7.58893352223e-01 
 7.68427118712e-01  7.77960885202e-01  7.87494651692e-01  7.97028418181e-01 
 8.06562184671e-01  8.16095951161e-01  8.25629717650e-01  8.35163484140e-01 
 8.44697250630e-01  8.54231017120e-01  8.63764783609e-01  8.73298550099e-01 
 8.82832316589e-01  8.92366083078e-01  9.01899849568e-01  9.11433616058e-01 
 9.20967382547e-01  9.30501149037e-01  9.40034915527e-01  9.49568682016e-01 
 9.59102448506e-01  9.68636214996e-01  9.78169981485e-01  9.87703747975e-01 
 9.97237514465e-01  1.00677128095e+00  1.01630504744e+00  1.02583881393e+00 
 1.03537258042e+00  1.04490634691e+00  1.05444011340e+00  1.06397387989e+00 
 6.34985374870e-01  6.44518963039e-01  6.54052551209e-01  6.63586139379e-01 
 6.73119727549e-01  6.82653315719e-01  6.92186903889e-01  7.01720492059e-01 
 7.11254080229e-01  7.20787668398e-01  7.30321256568e-01  7.39854844738e-01 
 7.49388432908e-01  7.58922021078e-01  7.68455609248e-01  7.77989197418e-01 
 7.87522785588e-01  7.97056373757e-01  8.06589961927e-01  8.16123550097e-01 
 8.25657138267e-01  8.35190726437e-01  8.44724314607e-01  8.54257902777e-01 
 8.63791490947e-01  8.73325079116e-01  8.82858667286e-01  8.92392255456e-01 
 9.01925843626e-01  9.11459431796e-01  9.20993019966e-01  9.30526608136e-01 
 9.40060196306e-01  9.49593784475e-01  9.59127372645e-01  9.68660960815e-01 
 9.78194548985e-01  9.87728137155e-01  9.97261725325e-01  1.00679531349e+00 
 1.01632890166e+00  1.02586248983e+00  1.03539607800e+00  1.04492966617e+00 
 1.05446325434e+00  1.06399684251e+00  6.34999909445e-01  6.44533066728e-01 
 6.54066224011e-01  6.63599381293e-01  6.73132538576e-01  6.82665695859e-01 
 6.92198853142e-01  7.01732010425e-01  7.11265167708e-01  7.20798324991e-01 
 7.30331482274e-01  7.39864639557e-01  7.49397796839e-01  7.58930954122e-01 
 7.68464111405e-01  7.77997268688e-01  7.87530425971e-01  7.97063583254e-01 
 8.06596740537e-01  8.16129897820e-01  8.25663055103e-01  8.35196212385e-01 
 8.44729369668e-01  8.54262526951e-01  8.63795684234e-01  8.73328841517e-01 
 8.82861998800e-01  8.92395156083e-01  9.01928313366e-01  9.11461470649e-01 
 9.20994627931e-01  9.30527785214e-01  9.40060942497e-01  9.49594099780e-01 
 9.59127257063e-01  9.68660414346e-01  9.78193571629e-01  9.87726728912e-01 
 9.97259886195e-01  1.00679304348e+00  1.01632620076e+00  1.02585935804e+00 
 1.03539251533e+00  1.04492567261e+00  1.05445882989e+00  1.06399198717e+00 
 6.34987968081e-01  6.44520863771e-01  6.54053759460e-01  6.63586655150e-01 
 6.73119550840e-01  6.82652446529e-01  6.92185342219e-01  7.01718237908e-01 
 7.11251133598e-01  7.20784029287e-01  7.30316924977e-01  7.39849820666e-01 
 7.49382716356e-01  7.58915612045e-01  7.68448507735e-01  7.77981403424e-01 
 7.87514299114e-01  7.97047194803e-01  8.06580090493e-01  8.16112986182e-01 
 8.25645881872e-01  8.35178777561e-01  8.44711673251e-01  8.54244568940e-01 
 8.63777464630e-01  8.73310360319e-01  8.82843256009e-01  8.92376151699e-01 
 9.01909047388e-01  9.11441943078e-01  9.20974838767e-01  9.30507734457e-01 
 9.40040630146e-01  9.49573525836e-01  9.59106421525e-01  9.68639317215e-01 
 9.78172212904e-01  9.87705108594e-01  9.97238004283e-01  1.00677089997e+00 
 1.01630379566e+00  1.02583669135e+00  1.03536958704e+00  1.04490248273e+00 
 1.05443537842e+00  1.06396827411e+00  6.34954236565e-01  6.44487290620e-01 
 6.54020344675e-01  6.63553398730e-01  6.73086452785e-01  6.82619506840e-01 
 6.92152560895e-01  7.01685614950e-01  7.11218669004e-01  7.20751723059e-01 
 7.30284777114e-01  7.39817831169e-01  7.49350885224e-01  7.58883939279e-01 
 7.68416993334e-01  7.77950047389e-01  7.87483101444e-01  7.97016155498e-01 
 8.06549209553e-01  8.16082263608e-01  8.25615317663e-01  8.35148371718e-01 
 8.44681425773e-01  8.54214479828e-01  8.63747533883e-01  8.73280587938e-01 
 8.82813641993e-01  8.92346696047e-01  9.01879750102e-01  9.11412804157e-01 
 9.20945858212e-01  9.30478912267e-01  9.40011966322e-01  9.49545020377e-01 
 9.59078074432e-01  9.68611128487e-01  9.78144182542e-01  9.87677236596e-01 
 9.97210290651e-01  1.00674334471e+00  1.01627639876e+00  1.02580945282e+00 
 1.03534250687e+00  1.04487556093e+00  1.05440861498e+00  1.06394166904e+00 
 6.34909316257e-01  6.44442755334e-01  6.53976194410e-01  6.63509633486e-01 
 6.73043072562e-01  6.82576511638e-01  6.92109950714e-01  7.01643389790e-01 
 7.11176828866e-01  7.20710267942e-01  7.30243707018e-01  7.39777146094e-01 
 7.49310585171e-01  7.58844024247e-01  7.68377463323e-01  7.77910902399e-01 
 7.87444341475e-01  7.96977780551e-01  8.06511219627e-01  8.16044658703e-01 
 8.25578097779e-01  8.35111536855e-01  8.44644975931e-01  8.54178415007e-01 
 8.63711854084e-01  8.73245293160e-01  8.82778732236e-01  8.92312171312e-01 
 9.01845610388e-01  9.11379049464e-01  9.20912488540e-01  9.30445927616e-01 
 9.39979366692e-01  9.49512805768e-01  9.59046244844e-01  9.68579683921e-01 
 9.78113122997e-01  9.87646562073e-01  9.97180001149e-01  1.00671344022e+00 
 1.01624687930e+00  1.02578031838e+00  1.03531375745e+00  1.04484719653e+00 
 1.05438063561e+00  1.06391407468e+00  6.34858878580e-01  6.44392814269e-01 
 6.53926749957e-01  6.63460685646e-01  6.72994621335e-01  6.82528557023e-01 
 6.92062492712e-01  7.01596428400e-01  7.11130364089e-01  7.20664299777e-01 
 7.30198235466e-01  7.39732171155e-01  7.49266106843e-01  7.58800042532e-01 
 7.68333978220e-01  7.77867913909e-01  7.87401849598e-01  7.96935785286e-01 
 8.06469720975e-01  8.16003656663e-01  8.25537592352e-01  8.35071528041e-01 
 8.44605463729e-01  8.54139399418e-01  8.63673335106e-01  8.73207270795e-01 
 8.82741206484e-01  8.92275142172e-01  9.01809077861e-01  9.11343013549e-01 
 9.20876949238e-01  9.30410884926e-01  9.39944820615e-01  9.49478756304e-01 
 9.59012691992e-01  9.68546627681e-01  9.78080563369e-01  9.87614499058e-01 
 9.97148434747e-01  1.00668237044e+00  1.01621630612e+00  1.02575024181e+00 
 1.03528417750e+00  1.04481811319e+00  1.05435204888e+00  1.06388598457e+00 
 6.34805300398e-01  6.44339795781e-01  6.53874291164e-01  6.63408786546e-01 
 6.72943281929e-01  6.82477777312e-01  6.92012272694e-01  7.01546768077e-01 
 7.11081263459e-01  7.20615758842e-01  7.30150254225e-01  7.39684749607e-01 
 7.49219244990e-01  7.58753740373e-01  7.68288235755e-01  7.77822731138e-01 
 7.87357226520e-01  7.96891721903e-01  8.06426217286e-01  8.15960712668e-01 
 8.25495208051e-01  8.35029703433e-01  8.44564198816e-01  8.54098694199e-01 
 8.63633189581e-01  8.73167684964e-01  8.82702180347e-01  8.92236675729e-01 
 9.01771171112e-01  9.11305666494e-01  9.20840161877e-01  9.30374657260e-01 
 9.39909152642e-01  9.49443648025e-01  9.58978143408e-01  9.68512638790e-01 
 9.78047134173e-01  9.87581629555e-01  9.97116124938e-01  1.00665062032e+00 
 1.01618511570e+00  1.02571961109e+00  1.03525410647e+00  1.04478860185e+00 
 1.05432309723e+00  1.06385759262e+00  6.34749875836e-01  6.44284967720e-01 
 6.53820059604e-01  6.63355151488e-01  6.72890243372e-01  6.82425335255e-01 
 6.91960427139e-01  7.01495519023e-01  7.11030610907e-01  7.20565702791e-01 
 7.30100794674e-01  7.39635886558e-01  7.49170978442e-01  7.58706070326e-01 
 7.68241162210e-01  7.77776254094e-01  7.87311345977e-01  7.96846437861e-01 
 8.06381529745e-01  8.15916621629e-01  8.25451713513e-01  8.34986805396e-01 
 8.44521897280e-01  8.54056989164e-01  8.63592081048e-01  8.73127172932e-01 
 8.82662264816e-01  8.92197356699e-01  9.01732448583e-01  9.11267540467e-01 
 9.20802632351e-01  9.30337724235e-01  9.39872816118e-01  9.49407908002e-01 
 9.58942999886e-01  9.68478091770e-01  9.78013183654e-01  9.87548275538e-01 
 9.97083367421e-01  1.00661845931e+00  1.01615355119e+00  1.02568864307e+00 
 1.03522373496e+00  1.04475882684e+00  1.05429391872e+00  1.06382901061e+00 
 6.34693241109e-01  6.44228953467e-01  6.53764665825e-01  6.63300378183e-01 
 6.72836090541e-01  6.82371802898e-01  6.91907515256e-01  7.01443227614e-01 
 7.10978939972e-01  7.20514652330e-01  7.30050364687e-01  7.39586077045e-01 
 7.49121789403e-01  7.58657501761e-01  7.68193214118e-01  7.77728926476e-01 
 7.87264638834e-01  7.96800351192e-01  8.06336063550e-01  8.15871775907e-01 
 8.25407488265e-01  8.34943200623e-01  8.44478912981e-01  8.54014625338e-01 
 8.63550337696e-01  8.73086050054e-01  8.82621762412e-01  8.92157474770e-01 
 9.01693187127e-01  9.11228899485e-01  9.20764611843e-01  9.30300324201e-01 
 9.39836036559e-01  9.49371748916e-01  9.58907461274e-01  9.68443173632e-01 
 9.77978885990e-01  9.87514598347e-01  9.97050310705e-01  1.00658602306e+00 
 1.01612173542e+00  1.02565744778e+00  1.03519316014e+00  1.04472887249e+00 
 1.05426458485e+00  1.06380029721e+00  6.34635807040e-01  6.44172155637e-01 
 6.53708504234e-01  6.63244852830e-01  6.72781201427e-01  6.82317550024e-01 
 6.91853898621e-01  7.01390247218e-01  7.10926595815e-01  7.20462944412e-01 
 7.29999293008e-01  7.39535641605e-01  7.49071990202e-01  7.58608338799e-01 
 7.68144687396e-01  7.77681035993e-01  7.87217384590e-01  7.96753733186e-01 
 8.06290081783e-01  8.15826430380e-01  8.25362778977e-01  8.34899127574e-01 
 8.44435476171e-01  8.53971824768e-01  8.63508173365e-01  8.73044521961e-01 
 8.82580870558e-01  8.92117219155e-01  9.01653567752e-01  9.11189916349e-01 
 9.20726264946e-01  9.30262613543e-01  9.39798962139e-01  9.49335310736e-01 
 9.58871659333e-01  9.68408007930e-01  9.77944356527e-01  9.87480705124e-01 
 9.97017053721e-01  1.00655340232e+00  1.01608975091e+00  1.02562609951e+00 
 1.03516244811e+00  1.04469879670e+00  1.05423514530e+00  1.06377149390e+00 
 6.34577826590e-01  6.44114822216e-01  6.53651817842e-01  6.63188813467e-01 
 6.72725809093e-01  6.82262804718e-01  6.91799800344e-01  7.01336795969e-01 
 7.10873791595e-01  7.20410787220e-01  7.29947782846e-01  7.39484778471e-01 
 7.49021774097e-01  7.58558769723e-01  7.68095765348e-01  7.77632760974e-01 
 7.87169756599e-01  7.96706752225e-01  8.06243747850e-01  8.15780743476e-01 
 8.25317739101e-01  8.34854734727e-01  8.44391730352e-01  8.53928725978e-01 
 8.63465721604e-01  8.73002717229e-01  8.82539712855e-01  8.92076708480e-01 
 9.01613704106e-01  9.11150699731e-01  9.20687695357e-01  9.30224690982e-01 
 9.39761686608e-01  9.49298682233e-01  9.58835677859e-01  9.68372673485e-01 
 9.77909669110e-01  9.87446664736e-01  9.96983660361e-01  1.00652065599e+00 
 1.01605765161e+00  1.02559464724e+00  1.03513164286e+00  1.04466863849e+00 
 1.05420563411e+00  1.06374262974e+00  6.34519490533e-01  6.44057140221e-01 
 6.53594789908e-01  6.63132439596e-01  6.72670089283e-01  6.82207738970e-01 
 6.91745388658e-01  7.01283038345e-01  7.10820688032e-01  7.20358337720e-01 
 7.29895987407e-01  7.39433637095e-01  7.48971286782e-01  7.58508936469e-01 
 7.68046586157e-01  7.77584235844e-01  7.87121885531e-01  7.96659535219e-01 
 8.06197184906e-01  8.15734834594e-01  8.25272484281e-01  8.34810133968e-01 
 8.44347783656e-01  8.53885433343e-01  8.63423083030e-01  8.72960732718e-01 
 8.82498382405e-01  8.92036032093e-01  9.01573681780e-01  9.11111331467e-01 
 9.20648981155e-01  9.30186630842e-01  9.39724280529e-01  9.49261930217e-01 
 9.58799579904e-01  9.68337229592e-01  9.77874879279e-01  9.87412528966e-01 
 9.96950178654e-01  1.00648782834e+00  1.01602547803e+00  1.02556312772e+00 
 1.03510077740e+00  1.04463842709e+00  1.05417607678e+00  1.06371372647e+00 
 6.34460936194e-01  6.43999244346e-01  6.53537552498e-01  6.63075860650e-01 
 6.72614168802e-01  6.82152476954e-01  6.91690785105e-01  7.01229093257e-01 
 7.10767401409e-01  7.20305709561e-01  7.29844017713e-01  7.39382325865e-01 
 7.48920634017e-01  7.58458942169e-01  7.67997250320e-01  7.77535558472e-01 
 7.87073866624e-01  7.96612174776e-01  8.06150482928e-01  8.15688791080e-01 
 8.25227099232e-01  8.34765407384e-01  8.44303715535e-01  8.53842023687e-01 
 8.63380331839e-01  8.72918639991e-01  8.82456948143e-01  8.91995256295e-01 
 9.01533564447e-01  9.11071872599e-01  9.20610180751e-01  9.30148488902e-01 
 9.39686797054e-01  9.49225105206e-01  9.58763413358e-01  9.68301721510e-01 
 9.77840029662e-01  9.87378337814e-01  9.96916645966e-01  1.00645495412e+00 
 1.01599326227e+00  1.02553157042e+00  1.03506987857e+00  1.04460818672e+00 
 1.05414649488e+00  1.06368480303e+00  6.34402283888e-01  6.43941252602e-01 
 6.53480221315e-01  6.63019190029e-01  6.72558158743e-01  6.82097127457e-01 
 6.91636096171e-01  7.01175064885e-01  7.10714033599e-01  7.20253002313e-01 
 7.29791971027e-01  7.39330939741e-01  7.48869908455e-01  7.58408877169e-01 
 7.67947845883e-01  7.77486814597e-01  7.87025783310e-01  7.96564752024e-01 
 8.06103720738e-01  8.15642689452e-01  8.25181658166e-01  8.34720626880e-01 
 8.44259595594e-01  8.53798564308e-01  8.63337533022e-01  8.72876501736e-01 
 8.82415470450e-01  8.91954439164e-01  9.01493407878e-01  9.11032376592e-01 
 9.20571345305e-01  9.30110314019e-01  9.39649282733e-01  9.49188251447e-01 
 9.58727220161e-01  9.68266188875e-01  9.77805157589e-01  9.87344126303e-01 
 9.96883095017e-01  1.00642206373e+00  1.01596103244e+00  1.02550000116e+00 
 1.03503896987e+00  1.04457793859e+00  1.05411690730e+00  1.06365587601e+00 
 6.34343640522e-01  6.43883269884e-01  6.53422899246e-01  6.62962528607e-01 
 6.72502157969e-01  6.82041787330e-01  6.91581416692e-01  7.01121046054e-01 
 7.10660675415e-01  7.20200304777e-01  7.29739934139e-01  7.39279563500e-01 
 7.48819192862e-01  7.58358822223e-01  7.67898451585e-01  7.77438080947e-01 
